   1.5870  -1.2953  -0.1514  -0.9044
   1.5870  -1.2255  -0.4460  -0.9044
   1.5870  -1.0896  -0.7166  -0.9044
   1.5870  -0.8949  -0.9486  -0.9044
   1.5870  -0.6521  -1.1294  -0.9044
   1.5870  -0.3740  -1.2493  -0.9044
   1.5870  -0.0758  -1.3019  -0.9044
   1.5870   0.2265  -1.2843  -0.9044
   1.5870   0.5165  -1.1975  -0.9044
   1.5870   0.7788  -1.0461  -0.9044
   1.5870   0.9990  -0.8383  -0.9044
   1.5870   1.1654  -0.5853  -0.9044
   1.5870   1.2690  -0.3007  -0.9044
   1.5870   1.3041   0.0000  -0.9044
   1.5870   1.1008   0.0000  -1.1431
   1.5870   1.0600   0.2970  -1.1431
   1.5870   0.9406   0.5720  -1.1431
   1.5870   0.7514   0.8045  -1.1431
   1.5870   0.5065   0.9774  -1.1431
   1.5870   0.2240   1.0778  -1.1431
   1.5870  -0.0751   1.0983  -1.1431
   1.5870  -0.3686   1.0373  -1.1431
   1.5870  -0.6348   0.8993  -1.1431
   1.5870  -0.8539   0.6947  -1.1431
   1.5870  -1.0097   0.4386  -1.1431
   1.5870  -1.0906   0.1499  -1.1431
   1.5870  -1.0906  -0.1499  -1.1431
   1.5870  -1.0097  -0.4386  -1.1431
   1.5870  -0.8539  -0.6947  -1.1431
   1.5870  -0.6348  -0.8993  -1.1431
   1.5870  -0.3686  -1.0373  -1.1431
   1.5870  -0.0751  -1.0983  -1.1431
   1.5870   0.2240  -1.0778  -1.1431
   1.5870   0.5065  -0.9774  -1.1431
   1.5870   0.7514  -0.8045  -1.1431
   1.5870   0.9406  -0.5720  -1.1431
   1.5870   1.0600  -0.2970  -1.1431
   1.5870   1.1008  -0.0000  -1.1431
   1.5870   0.8546   0.0000  -1.3373
   1.5870   0.8030   0.2923  -1.3373
   1.5870   0.6546   0.5493  -1.3373
   1.5870   0.4273   0.7401  -1.3373
   1.5870   0.1484   0.8416  -1.3373
   1.5870  -0.1484   0.8416  -1.3373
   1.5870  -0.4273   0.7401  -1.3373
   1.5870  -0.6546   0.5493  -1.3373
   1.5870  -0.8030   0.2923  -1.3373
   1.5870  -0.8546  -0.0000  -1.3373
   1.5870  -0.8030  -0.2923  -1.3373
   1.5870  -0.6546  -0.5493  -1.3373
   1.5870  -0.4273  -0.7401  -1.3373
   1.5870  -0.1484  -0.8416  -1.3373
   1.5870   0.1484  -0.8416  -1.3373
   1.5870   0.4273  -0.7401  -1.3373
   1.5870   0.6546  -0.5493  -1.3373
   1.5870   0.8030  -0.2923  -1.3373
   1.5870   0.5749   0.0000  -1.4792
   1.5870   0.4979   0.2875  -1.4792
   1.5870   0.2875   0.4979  -1.4792
   1.5870  -0.0000   0.5749  -1.4792
   1.5870  -0.2875   0.4979  -1.4792
   1.5870  -0.4979   0.2875  -1.4792
   1.5870  -0.5749  -0.0000  -1.4792
   1.5870  -0.4979  -0.2875  -1.4792
   1.5870  -0.2875  -0.4979  -1.4792
   1.5870   0.0000  -0.5749  -1.4792
   1.5870   0.2875  -0.4979  -1.4792
   1.5870   0.4979  -0.2875  -1.4792
   1.5870   0.2729   0.0000  -1.5634
   1.5870   0.1364   0.2363  -1.5634
   1.5870  -0.1364   0.2363  -1.5634
   1.5870  -0.2729  -0.0000  -1.5634
   1.5870  -0.1364  -0.2363  -1.5634
   1.5870   0.1364  -0.2363  -1.5634
   1.4870   0.0000   0.0000   1.4870
   1.4870   0.3102   0.0000   1.4543
   1.4870   0.1934   0.2425   1.4543
   1.4870  -0.0690   0.3024   1.4543
   1.4870  -0.2795   0.1346   1.4543
   1.4870  -0.2795  -0.1346   1.4543
   1.4870  -0.0690  -0.3024   1.4543
   1.4870   0.1934  -0.2425   1.4543
   1.4870   0.3102  -0.0000   1.4543
   1.4870   0.6067   0.0000   1.3576
   1.4870   0.5372   0.2820   1.3576
   1.4870   0.3447   0.4993   1.3576
   1.4870   0.0731   0.6023   1.3576
   1.4870  -0.2151   0.5673   1.3576
   1.4870  -0.4541   0.4023   1.3576
   1.4870  -0.5891   0.1452   1.3576
   1.4870  -0.5891  -0.1452   1.3576
   1.4870  -0.4541  -0.4023   1.3576
   1.4870  -0.2151  -0.5673   1.3576
   1.4870   0.0731  -0.6023   1.3576
   1.4870   0.3447  -0.4993   1.3576
   1.4870   0.5372  -0.2820   1.3576
   1.4870   0.6067   0.0000   1.3576
   1.4870   0.8766   0.0000   1.2012
   1.4870   0.8237   0.2998   1.2012
   1.4870   0.6715   0.5634   1.2012
   1.4870   0.4383   0.7591   1.2012
   1.4870   0.1522   0.8632   1.2012
   1.4870  -0.1522   0.8632   1.2012
   1.4870  -0.4383   0.7591   1.2012
   1.4870  -0.6715   0.5634   1.2012
   1.4870  -0.8237   0.2998   1.2012
   1.4870  -0.8766  -0.0000   1.2012
   1.4870  -0.8237  -0.2998   1.2012
   1.4870  -0.6715  -0.5634   1.2012
   1.4870  -0.4383  -0.7591   1.2012
   1.4870  -0.1522  -0.8632   1.2012
   1.4870   0.1522  -0.8632   1.2012
   1.4870   0.4383  -0.7591   1.2012
   1.4870   0.6715  -0.5634   1.2012
   1.4870   0.8237  -0.2998   1.2012
   1.4870   1.1078   0.0000   0.9919
   1.4870   1.0667   0.2989   0.9919
   1.4870   0.9466   0.5756   0.9919
   1.4870   0.7562   0.8096   0.9919
   1.4870   0.5097   0.9836   0.9919
   1.4870   0.2254   1.0847   0.9919
   1.4870  -0.0756   1.1052   0.9919
   1.4870  -0.3710   1.0439   0.9919
   1.4870  -0.6389   0.9051   0.9919
   1.4870  -0.8594   0.6991   0.9919
   1.4870  -1.0161   0.4414   0.9919
   1.4870  -1.0975   0.1508   0.9919
   1.4870  -1.0975  -0.1508   0.9919
   1.4870  -1.0161  -0.4414   0.9919
   1.4870  -0.8594  -0.6991   0.9919
   1.4870  -0.6389  -0.9051   0.9919
   1.4870  -0.3710  -1.0439   0.9919
   1.4870  -0.0756  -1.1052   0.9919
   1.4870   0.2254  -1.0847   0.9919
   1.4870   0.5097  -0.9836   0.9919
   1.4870   0.7562  -0.8096   0.9919
   1.4870   0.9466  -0.5756   0.9919
   1.4870   1.0667  -0.2989   0.9919
   1.4870   1.1078  -0.0000   0.9919
   1.4870   1.2904   0.0000   0.7390
   1.4870   1.2529   0.3088   0.7390
   1.4870   1.1426   0.5997   0.7390
   1.4870   0.9659   0.8557   0.7390
   1.4870   0.7330   1.0620   0.7390
   1.4870   0.4576   1.2065   0.7390
   1.4870   0.1555   1.2810   0.7390
   1.4870  -0.1555   1.2810   0.7390
   1.4870  -0.4576   1.2065   0.7390
   1.4870  -0.7330   1.0620   0.7390
   1.4870  -0.9659   0.8557   0.7390
   1.4870  -1.1426   0.5997   0.7390
   1.4870  -1.2529   0.3088   0.7390
   1.4870  -1.2904  -0.0000   0.7390
   1.4870  -1.2529  -0.3088   0.7390
   1.4870  -1.1426  -0.5997   0.7390
   1.4870  -0.9659  -0.8557   0.7390
   1.4870  -0.7330  -1.0620   0.7390
   1.4870  -0.4576  -1.2065   0.7390
   1.4870  -0.1555  -1.2810   0.7390
   1.4870   0.1555  -1.2810   0.7390
   1.4870   0.4576  -1.2065   0.7390
   1.4870   0.7330  -1.0620   0.7390
   1.4870   0.9659  -0.8557   0.7390
   1.4870   1.1426  -0.5997   0.7390
   1.4870   1.2529  -0.3088   0.7390
   1.4870   1.2904   0.0000   0.7390
   1.4870   1.4161   0.0000   0.4536
   1.4870   1.3830   0.3044   0.4536
   1.4870   1.2852   0.5946   0.4536
   1.4870   1.1274   0.8570   0.4536
   1.4870   0.9168   1.0793   0.4536
   1.4870   0.6633   1.2512   0.4536
   1.4870   0.3789   1.3645   0.4536
   1.4870   0.0767   1.4141   0.4536
   1.4870  -0.2291   1.3975   0.4536
   1.4870  -0.5242   1.3156   0.4536
   1.4870  -0.7947   1.1721   0.4536
   1.4870  -1.0281   0.9739   0.4536
   1.4870  -1.2134   0.7301   0.4536
   1.4870  -1.3420   0.4522   0.4536
   1.4870  -1.4078   0.1531   0.4536
   1.4870  -1.4078  -0.1531   0.4536
   1.4870  -1.3420  -0.4522   0.4536
   1.4870  -1.2134  -0.7301   0.4536
   1.4870  -1.0281  -0.9739   0.4536
   1.4870  -0.7947  -1.1721   0.4536
   1.4870  -0.5242  -1.3156   0.4536
   1.4870  -0.2291  -1.3975   0.4536
   1.4870   0.0767  -1.4141   0.4536
   1.4870   0.3789  -1.3645   0.4536
   1.4870   0.6633  -1.2512   0.4536
   1.4870   0.9168  -1.0793   0.4536
   1.4870   1.1274  -0.8570   0.4536
   1.4870   1.2852  -0.5946   0.4536
   1.4870   1.3830  -0.3044   0.4536
   1.4870   1.4796   0.0000   0.1482
   1.4870   1.4473   0.3076   0.1482
   1.4870   1.3517   0.6018   0.1482
   1.4870   1.1970   0.8697   0.1482
   1.4870   0.9900   1.0996   0.1482
   1.4870   0.7398   1.2814   0.1482
   1.4870   0.4572   1.4072   0.1482
   1.4870   0.1547   1.4715   0.1482
   1.4870  -0.1547   1.4715   0.1482
   1.4870  -0.4572   1.4072   0.1482
   1.4870  -0.7398   1.2814   0.1482
   1.4870  -0.9900   1.0996   0.1482
   1.4870  -1.1970   0.8697   0.1482
   1.4870  -1.3517   0.6018   0.1482
   1.4870  -1.4473   0.3076   0.1482
   1.4870  -1.4796  -0.0000   0.1482
   1.4870  -1.4473  -0.3076   0.1482
   1.4870  -1.3517  -0.6018   0.1482
   1.4870  -1.1970  -0.8697   0.1482
   1.4870  -0.9900  -1.0996   0.1482
   1.4870  -0.7398  -1.2814   0.1482
   1.4870  -0.4572  -1.4072   0.1482
   1.4870  -0.1547  -1.4715   0.1482
   1.4870   0.1547  -1.4715   0.1482
   1.4870   0.4572  -1.4072   0.1482
   1.4870   0.7398  -1.2814   0.1482
   1.4870   0.9900  -1.0996   0.1482
   1.4870   1.1970  -0.8697   0.1482
   1.4870   1.3517  -0.6018   0.1482
   1.4870   1.4473  -0.3076   0.1482
   1.4870   1.4780   0.0000  -0.1637
   1.4870   1.4457   0.3073  -0.1637
   1.4870   1.3502   0.6011  -0.1637
   1.4870   1.1957   0.8687  -0.1637
   1.4870   0.9890   1.0983  -0.1637
   1.4870   0.7390   1.2800  -0.1637
   1.4870   0.4567   1.4056  -0.1637
   1.4870   0.1545   1.4699  -0.1637
   1.4870  -0.1545   1.4699  -0.1637
   1.4870  -0.4567   1.4056  -0.1637
   1.4870  -0.7390   1.2800  -0.1637
   1.4870  -0.9890   1.0983  -0.1637
   1.4870  -1.1957   0.8687  -0.1637
   1.4870  -1.3502   0.6011  -0.1637
   1.4870  -1.4457   0.3073  -0.1637
   1.4870  -1.4780  -0.0000  -0.1637
   1.4870  -1.4457  -0.3073  -0.1637
   1.4870  -1.3502  -0.6011  -0.1637
   1.4870  -1.1957  -0.8687  -0.1637
   1.4870  -0.9890  -1.0983  -0.1637
   1.4870  -0.7390  -1.2800  -0.1637
   1.4870  -0.4567  -1.4056  -0.1637
   1.4870  -0.1545  -1.4699  -0.1637
   1.4870   0.1545  -1.4699  -0.1637
   1.4870   0.4567  -1.4056  -0.1637
   1.4870   0.7390  -1.2800  -0.1637
   1.4870   0.9890  -1.0983  -0.1637
   1.4870   1.1957  -0.8687  -0.1637
   1.4870   1.3502  -0.6011  -0.1637
   1.4870   1.4457  -0.3073  -0.1637
   1.4870   1.4113   0.0000  -0.4684
   1.4870   1.3783   0.3034  -0.4684
   1.4870   1.2809   0.5926  -0.4684
   1.4870   1.1235   0.8541  -0.4684
   1.4870   0.9137   1.0756  -0.4684
   1.4870   0.6611   1.2469  -0.4684
   1.4870   0.3776   1.3599  -0.4684
   1.4870   0.0764   1.4092  -0.4684
   1.4870  -0.2283   1.3927  -0.4684
   1.4870  -0.5224   1.3111  -0.4684
   1.4870  -0.7920   1.1681  -0.4684
   1.4870  -1.0246   0.9706  -0.4684
   1.4870  -1.2093   0.7276  -0.4684
   1.4870  -1.3374   0.4506  -0.4684
   1.4870  -1.4030   0.1526  -0.4684
   1.4870  -1.4030  -0.1526  -0.4684
   1.4870  -1.3374  -0.4506  -0.4684
   1.4870  -1.2093  -0.7276  -0.4684
   1.4870  -1.0246  -0.9706  -0.4684
   1.4870  -0.7920  -1.1681  -0.4684
   1.4870  -0.5224  -1.3111  -0.4684
   1.4870  -0.2283  -1.3927  -0.4684
   1.4870   0.0764  -1.4092  -0.4684
   1.4870   0.3776  -1.3599  -0.4684
   1.4870   0.6611  -1.2469  -0.4684
   1.4870   0.9137  -1.0756  -0.4684
   1.4870   1.1235  -0.8541  -0.4684
   1.4870   1.2809  -0.5926  -0.4684
   1.4870   1.3783  -0.3034  -0.4684
   1.4870   1.2826   0.0000  -0.7525
   1.4870   1.2453   0.3069  -0.7525
   1.4870   1.1356   0.5960  -0.7525
   1.4870   0.9600   0.8505  -0.7525
   1.4870   0.7286   1.0555  -0.7525
   1.4870   0.4548   1.1992  -0.7525
   1.4870   0.1546   1.2732  -0.7525
   1.4870  -0.1546   1.2732  -0.7525
   1.4870  -0.4548   1.1992  -0.7525
   1.4870  -0.7286   1.0555  -0.7525
   1.4870  -0.9600   0.8505  -0.7525
   1.4870  -1.1356   0.5960  -0.7525
   1.4870  -1.2453   0.3069  -0.7525
   1.4870  -1.2826  -0.0000  -0.7525
   1.4870  -1.2453  -0.3069  -0.7525
   1.4870  -1.1356  -0.5960  -0.7525
   1.4870  -0.9600  -0.8505  -0.7525
   1.4870  -0.7286  -1.0555  -0.7525
   1.4870  -0.4548  -1.1992  -0.7525
   1.4870  -0.1546  -1.2732  -0.7525
   1.4870   0.1546  -1.2732  -0.7525
   1.4870   0.4548  -1.1992  -0.7525
   1.4870   0.7286  -1.0555  -0.7525
   1.4870   0.9600  -0.8505  -0.7525
   1.4870   1.1356  -0.5960  -0.7525
   1.4870   1.2453  -0.3069  -0.7525
   1.4870   1.2826   0.0000  -0.7525
   1.4870   1.0974   0.0000  -1.0035
   1.4870   1.0567   0.2961  -1.0035
   1.4870   0.9376   0.5702  -1.0035
   1.4870   0.7490   0.8020  -1.0035
   1.4870   0.5049   0.9743  -1.0035
   1.4870   0.2233   1.0744  -1.0035
   1.4870  -0.0749   1.0948  -1.0035
   1.4870  -0.3675   1.0340  -1.0035
   1.4870  -0.6328   0.8965  -1.0035
   1.4870  -0.8513   0.6925  -1.0035
   1.4870  -1.0065   0.4372  -1.0035
   1.4870  -1.0872   0.1494  -1.0035
   1.4870  -1.0872  -0.1494  -1.0035
   1.4870  -1.0065  -0.4372  -1.0035
   1.4870  -0.8513  -0.6925  -1.0035
   1.4870  -0.6328  -0.8965  -1.0035
   1.4870  -0.3675  -1.0340  -1.0035
   1.4870  -0.0749  -1.0948  -1.0035
   1.4870   0.2233  -1.0744  -1.0035
   1.4870   0.5049  -0.9744  -1.0035
   1.4870   0.7490  -0.8020  -1.0035
   1.4870   0.9376  -0.5702  -1.0035
   1.4870   1.0567  -0.2961  -1.0035
   1.4870   1.0974  -0.0000  -1.0035
   1.4870   0.8639   0.0000  -1.2103
   1.4870   0.8118   0.2955  -1.2103
   1.4870   0.6618   0.5553  -1.2103
   1.4870   0.4320   0.7482  -1.2103
   1.4870   0.1500   0.8508  -1.2103
   1.4870  -0.1500   0.8508  -1.2103
   1.4870  -0.4320   0.7482  -1.2103
   1.4870  -0.6618   0.5553  -1.2103
   1.4870  -0.8118   0.2955  -1.2103
   1.4870  -0.8639  -0.0000  -1.2103
   1.4870  -0.8118  -0.2955  -1.2103
   1.4870  -0.6618  -0.5553  -1.2103
   1.4870  -0.4320  -0.7482  -1.2103
   1.4870  -0.1500  -0.8508  -1.2103
   1.4870   0.1500  -0.8508  -1.2103
   1.4870   0.4320  -0.7482  -1.2103
   1.4870   0.6618  -0.5553  -1.2103
   1.4870   0.8118  -0.2955  -1.2103
   1.4870   0.5925   0.0000  -1.3639
   1.4870   0.5131   0.2962  -1.3639
   1.4870   0.2962   0.5131  -1.3639
   1.4870  -0.0000   0.5925  -1.3639
   1.4870  -0.2962   0.5131  -1.3639
   1.4870  -0.5131   0.2962  -1.3639
   1.4870  -0.5925  -0.0000  -1.3639
   1.4870  -0.5131  -0.2962  -1.3639
   1.4870  -0.2962  -0.5131  -1.3639
   1.4870   0.0000  -0.5925  -1.3639
   1.4870   0.2962  -0.5131  -1.3639
   1.4870   0.5131  -0.2962  -1.3639
   1.4870   0.2949   0.0000  -1.4575
   1.4870   0.1475   0.2554  -1.4575
   1.4870  -0.1475   0.2554  -1.4575
   1.4870  -0.2949  -0.0000  -1.4575
   1.4870  -0.1475  -0.2554  -1.4575
   1.4870   0.1475  -0.2554  -1.4575
   1.3870   0.0000   0.0000   1.3870
   1.3870   0.3096   0.0000   1.3520
   1.3870   0.1931   0.2421   1.3520
   1.3870  -0.0689   0.3019   1.3520
   1.3870  -0.2790   0.1344   1.3520
   1.3870  -0.2790  -0.1344   1.3520
   1.3870  -0.0689  -0.3019   1.3520
   1.3870   0.1931  -0.2421   1.3520
   1.3870   0.3096  -0.0000   1.3520
   1.3870   0.6037   0.0000   1.2487
   1.3870   0.5345   0.2805   1.2487
   1.3870   0.3429   0.4968   1.2487
   1.3870   0.0728   0.5993   1.2487
   1.3870  -0.2141   0.5644   1.2487
   1.3870  -0.4519   0.4003   1.2487
   1.3870  -0.5861   0.1445   1.2487
   1.3870  -0.5861  -0.1445   1.2487
   1.3870  -0.4519  -0.4003   1.2487
   1.3870  -0.2141  -0.5644   1.2487
   1.3870   0.0728  -0.5993   1.2487
   1.3870   0.3429  -0.4968   1.2487
   1.3870   0.5345  -0.2805   1.2487
   1.3870   0.6037   0.0000   1.2487
   1.3870   0.8672   0.0000   1.0825
   1.3870   0.8149   0.2966   1.0825
   1.3870   0.6643   0.5574   1.0825
   1.3870   0.4336   0.7510   1.0825
   1.3870   0.1506   0.8540   1.0825
   1.3870  -0.1506   0.8540   1.0825
   1.3870  -0.4336   0.7510   1.0825
   1.3870  -0.6643   0.5574   1.0825
   1.3870  -0.8149   0.2966   1.0825
   1.3870  -0.8672  -0.0000   1.0825
   1.3870  -0.8149  -0.2966   1.0825
   1.3870  -0.6643  -0.5574   1.0825
   1.3870  -0.4336  -0.7510   1.0825
   1.3870  -0.1506  -0.8540   1.0825
   1.3870   0.1506  -0.8540   1.0825
   1.3870   0.4336  -0.7510   1.0825
   1.3870   0.6643  -0.5574   1.0825
   1.3870   0.8149  -0.2966   1.0825
   1.3870   1.0870   0.0000   0.8615
   1.3870   1.0430   0.3062   0.8615
   1.3870   0.9144   0.5877   0.8615
   1.3870   0.7118   0.8215   0.8615
   1.3870   0.4515   0.9888   0.8615
   1.3870   0.1547   1.0759   0.8615
   1.3870  -0.1547   1.0759   0.8615
   1.3870  -0.4515   0.9888   0.8615
   1.3870  -0.7118   0.8215   0.8615
   1.3870  -0.9144   0.5877   0.8615
   1.3870  -1.0430   0.3062   0.8615
   1.3870  -1.0870   0.0000   0.8615
   1.3870  -1.0430  -0.3062   0.8615
   1.3870  -0.9144  -0.5877   0.8615
   1.3870  -0.7118  -0.8215   0.8615
   1.3870  -0.4516  -0.9888   0.8615
   1.3870  -0.1547  -1.0759   0.8615
   1.3870   0.1547  -1.0759   0.8615
   1.3870   0.4515  -0.9888   0.8615
   1.3870   0.7118  -0.8215   0.8615
   1.3870   0.9144  -0.5877   0.8615
   1.3870   1.0430  -0.3062   0.8615
   1.3870   1.0870   0.0000   0.8615
   1.3870   1.2519   0.0000   0.5971
   1.3870   1.2155   0.2996   0.5971
   1.3870   1.1085   0.5818   0.5971
   1.3870   0.9370   0.8302   0.5971
   1.3870   0.7112   1.0303   0.5971
   1.3870   0.4439   1.1705   0.5971
   1.3870   0.1509   1.2428   0.5971
   1.3870  -0.1509   1.2428   0.5971
   1.3870  -0.4439   1.1705   0.5971
   1.3870  -0.7112   1.0303   0.5971
   1.3870  -0.9371   0.8302   0.5971
   1.3870  -1.1085   0.5818   0.5971
   1.3870  -1.2155   0.2996   0.5971
   1.3870  -1.2519  -0.0000   0.5971
   1.3870  -1.2155  -0.2996   0.5971
   1.3870  -1.1085  -0.5818   0.5971
   1.3870  -0.9370  -0.8302   0.5971
   1.3870  -0.7112  -1.0303   0.5971
   1.3870  -0.4439  -1.1705   0.5971
   1.3870  -0.1509  -1.2428   0.5971
   1.3870   0.1509  -1.2428   0.5971
   1.3870   0.4439  -1.1705   0.5971
   1.3870   0.7112  -1.0303   0.5971
   1.3870   0.9371  -0.8302   0.5971
   1.3870   1.1085  -0.5818   0.5971
   1.3870   1.2155  -0.2996   0.5971
   1.3870   1.2519   0.0000   0.5971
   1.3870   1.3536   0.0000   0.3026
   1.3870   1.3197   0.3012   0.3026
   1.3870   1.2195   0.5873   0.3026
   1.3870   1.0583   0.8440   0.3026
   1.3870   0.8440   1.0583   0.3026
   1.3870   0.5873   1.2195   0.3026
   1.3870   0.3012   1.3197   0.3026
   1.3870   0.0000   1.3536   0.3026
   1.3870  -0.3012   1.3197   0.3026
   1.3870  -0.5873   1.2195   0.3026
   1.3870  -0.8440   1.0583   0.3026
   1.3870  -1.0583   0.8440   0.3026
   1.3870  -1.2195   0.5873   0.3026
   1.3870  -1.3197   0.3012   0.3026
   1.3870  -1.3536  -0.0000   0.3026
   1.3870  -1.3197  -0.3012   0.3026
   1.3870  -1.2195  -0.5873   0.3026
   1.3870  -1.0583  -0.8440   0.3026
   1.3870  -0.8440  -1.0583   0.3026
   1.3870  -0.5873  -1.2195   0.3026
   1.3870  -0.3012  -1.3197   0.3026
   1.3870   0.0000  -1.3536   0.3026
   1.3870   0.3012  -1.3197   0.3026
   1.3870   0.5873  -1.2195   0.3026
   1.3870   0.8440  -1.0583   0.3026
   1.3870   1.0583  -0.8440   0.3026
   1.3870   1.2195  -0.5873   0.3026
   1.3870   1.3197  -0.3012   0.3026
   1.3870   1.3536   0.0000   0.3026
   1.3870   1.3870   0.0000  -0.0073
   1.3870   1.3522   0.3086  -0.0073
   1.3870   1.2496   0.6018  -0.0073
   1.3870   1.0844   0.8648  -0.0073
   1.3870   0.8648   1.0844  -0.0073
   1.3870   0.6018   1.2496  -0.0073
   1.3870   0.3086   1.3522  -0.0073
   1.3870   0.0000   1.3870  -0.0073
   1.3870  -0.3086   1.3522  -0.0073
   1.3870  -0.6018   1.2496  -0.0073
   1.3870  -0.8648   1.0844  -0.0073
   1.3870  -1.0844   0.8648  -0.0073
   1.3870  -1.2496   0.6018  -0.0073
   1.3870  -1.3522   0.3086  -0.0073
   1.3870  -1.3870  -0.0000  -0.0073
   1.3870  -1.3522  -0.3086  -0.0073
   1.3870  -1.2496  -0.6018  -0.0073
   1.3870  -1.0844  -0.8648  -0.0073
   1.3870  -0.8648  -1.0844  -0.0073
   1.3870  -0.6018  -1.2496  -0.0073
   1.3870  -0.3086  -1.3522  -0.0073
   1.3870   0.0000  -1.3870  -0.0073
   1.3870   0.3086  -1.3522  -0.0073
   1.3870   0.6018  -1.2496  -0.0073
   1.3870   0.8648  -1.0844  -0.0073
   1.3870   1.0844  -0.8648  -0.0073
   1.3870   1.2496  -0.6018  -0.0073
   1.3870   1.3522  -0.3086  -0.0073
   1.3870   1.3870   0.0000  -0.0073
   1.3870   1.3504   0.0000  -0.3167
   1.3870   1.3165   0.3005  -0.3167
   1.3870   1.2166   0.5859  -0.3167
   1.3870   1.0557   0.8419  -0.3167
   1.3870   0.8419   1.0557  -0.3167
   1.3870   0.5859   1.2166  -0.3167
   1.3870   0.3005   1.3165  -0.3167
   1.3870   0.0000   1.3504  -0.3167
   1.3870  -0.3005   1.3165  -0.3167
   1.3870  -0.5859   1.2166  -0.3167
   1.3870  -0.8419   1.0557  -0.3167
   1.3870  -1.0557   0.8419  -0.3167
   1.3870  -1.2166   0.5859  -0.3167
   1.3870  -1.3165   0.3005  -0.3167
   1.3870  -1.3504  -0.0000  -0.3167
   1.3870  -1.3165  -0.3005  -0.3167
   1.3870  -1.2166  -0.5859  -0.3167
   1.3870  -1.0557  -0.8419  -0.3167
   1.3870  -0.8419  -1.0557  -0.3167
   1.3870  -0.5859  -1.2166  -0.3167
   1.3870  -0.3005  -1.3165  -0.3167
   1.3870   0.0000  -1.3504  -0.3167
   1.3870   0.3005  -1.3165  -0.3167
   1.3870   0.5859  -1.2166  -0.3167
   1.3870   0.8419  -1.0557  -0.3167
   1.3870   1.0558  -0.8419  -0.3167
   1.3870   1.2166  -0.5859  -0.3167
   1.3870   1.3165  -0.3005  -0.3167
   1.3870   1.3504   0.0000  -0.3167
   1.3870   1.2456   0.0000  -0.6102
   1.3870   1.2094   0.2981  -0.6102
   1.3870   1.1029   0.5788  -0.6102
   1.3870   0.9323   0.8260  -0.6102
   1.3870   0.7076   1.0251  -0.6102
   1.3870   0.4417   1.1646  -0.6102
   1.3870   0.1501   1.2365  -0.6102
   1.3870  -0.1501   1.2365  -0.6102
   1.3870  -0.4417   1.1646  -0.6102
   1.3870  -0.7076   1.0251  -0.6102
   1.3870  -0.9323   0.8260  -0.6102
   1.3870  -1.1029   0.5788  -0.6102
   1.3870  -1.2094   0.2981  -0.6102
   1.3870  -1.2456  -0.0000  -0.6102
   1.3870  -1.2094  -0.2981  -0.6102
   1.3870  -1.1029  -0.5788  -0.6102
   1.3870  -0.9323  -0.8260  -0.6102
   1.3870  -0.7076  -1.0251  -0.6102
   1.3870  -0.4417  -1.1646  -0.6102
   1.3870  -0.1501  -1.2365  -0.6102
   1.3870   0.1501  -1.2365  -0.6102
   1.3870   0.4417  -1.1646  -0.6102
   1.3870   0.7076  -1.0251  -0.6102
   1.3870   0.9323  -0.8260  -0.6102
   1.3870   1.1029  -0.5788  -0.6102
   1.3870   1.2094  -0.2981  -0.6102
   1.3870   1.2456   0.0000  -0.6102
   1.3870   1.0779   0.0000  -0.8729
   1.3870   1.0342   0.3037  -0.8729
   1.3870   0.9068   0.5828  -0.8729
   1.3870   0.7059   0.8146  -0.8729
   1.3870   0.4478   0.9805  -0.8729
   1.3870   0.1534   1.0669  -0.8729
   1.3870  -0.1534   1.0669  -0.8729
   1.3870  -0.4478   0.9805  -0.8729
   1.3870  -0.7059   0.8146  -0.8729
   1.3870  -0.9068   0.5828  -0.8729
   1.3870  -1.0342   0.3037  -0.8729
   1.3870  -1.0779   0.0000  -0.8729
   1.3870  -1.0342  -0.3037  -0.8729
   1.3870  -0.9068  -0.5828  -0.8729
   1.3870  -0.7059  -0.8146  -0.8729
   1.3870  -0.4478  -0.9805  -0.8729
   1.3870  -0.1534  -1.0669  -0.8729
   1.3870   0.1534  -1.0669  -0.8729
   1.3870   0.4478  -0.9805  -0.8729
   1.3870   0.7059  -0.8146  -0.8729
   1.3870   0.9068  -0.5828  -0.8729
   1.3870   1.0342  -0.3037  -0.8729
   1.3870   1.0779   0.0000  -0.8729
   1.3870   0.8558   0.0000  -1.0915
   1.3870   0.8042   0.2927  -1.0915
   1.3870   0.6556   0.5501  -1.0915
   1.3870   0.4279   0.7412  -1.0915
   1.3870   0.1486   0.8428  -1.0915
   1.3870  -0.1486   0.8428  -1.0915
   1.3870  -0.4279   0.7412  -1.0915
   1.3870  -0.6556   0.5501  -1.0915
   1.3870  -0.8042   0.2927  -1.0915
   1.3870  -0.8558  -0.0000  -1.0915
   1.3870  -0.8042  -0.2927  -1.0915
   1.3870  -0.6556  -0.5501  -1.0915
   1.3870  -0.4279  -0.7412  -1.0915
   1.3870  -0.1486  -0.8428  -1.0915
   1.3870   0.1486  -0.8428  -1.0915
   1.3870   0.4279  -0.7412  -1.0915
   1.3870   0.6556  -0.5501  -1.0915
   1.3870   0.8042  -0.2927  -1.0915
   1.3870   0.5906   0.0000  -1.2550
   1.3870   0.5114   0.2953  -1.2550
   1.3870   0.2953   0.5114  -1.2550
   1.3870  -0.0000   0.5906  -1.2550
   1.3870  -0.2953   0.5114  -1.2550
   1.3870  -0.5114   0.2953  -1.2550
   1.3870  -0.5906  -0.0000  -1.2550
   1.3870  -0.5114  -0.2953  -1.2550
   1.3870  -0.2953  -0.5114  -1.2550
   1.3870   0.0000  -0.5906  -1.2550
   1.3870   0.2953  -0.5114  -1.2550
   1.3870   0.5114  -0.2953  -1.2550
   1.3870   0.2955   0.0000  -1.3552
   1.3870   0.1477   0.2559  -1.3552
   1.3870  -0.1477   0.2559  -1.3552
   1.3870  -0.2955  -0.0000  -1.3552
   1.3870  -0.1477  -0.2559  -1.3552
   1.3870   0.1477  -0.2559  -1.3552
   1.3000   0.0000   0.0000   1.3000
   1.3000   0.3110   0.0000   1.2623
   1.3000   0.1939   0.2431   1.2623
   1.3000  -0.0692   0.3032   1.2623
   1.3000  -0.2802   0.1349   1.2623
   1.3000  -0.2802  -0.1349   1.2623
   1.3000  -0.0692  -0.3032   1.2623
   1.3000   0.1939  -0.2431   1.2623
   1.3000   0.3110  -0.0000   1.2623
   1.3000   0.6039   0.0000   1.1512
   1.3000   0.5347   0.2806   1.1512
   1.3000   0.3431   0.4970   1.1512
   1.3000   0.0728   0.5995   1.1512
   1.3000  -0.2141   0.5646   1.1512
   1.3000  -0.4520   0.4005   1.1512
   1.3000  -0.5863   0.1445   1.1512
   1.3000  -0.5863  -0.1445   1.1512
   1.3000  -0.4520  -0.4005   1.1512
   1.3000  -0.2141  -0.5646   1.1512
   1.3000   0.0728  -0.5995   1.1512
   1.3000   0.3431  -0.4970   1.1512
   1.3000   0.5347  -0.2806   1.1512
   1.3000   0.6039   0.0000   1.1512
   1.3000   0.8617   0.0000   0.9733
   1.3000   0.8098   0.2947   0.9733
   1.3000   0.6601   0.5539   0.9733
   1.3000   0.4309   0.7463   0.9733
   1.3000   0.1496   0.8487   0.9733
   1.3000  -0.1496   0.8487   0.9733
   1.3000  -0.4309   0.7463   0.9733
   1.3000  -0.6601   0.5539   0.9733
   1.3000  -0.8098   0.2947   0.9733
   1.3000  -0.8617  -0.0000   0.9733
   1.3000  -0.8098  -0.2947   0.9733
   1.3000  -0.6601  -0.5539   0.9733
   1.3000  -0.4309  -0.7463   0.9733
   1.3000  -0.1496  -0.8487   0.9733
   1.3000   0.1496  -0.8487   0.9733
   1.3000   0.4309  -0.7463   0.9733
   1.3000   0.6601  -0.5539   0.9733
   1.3000   0.8098  -0.2947   0.9733
   1.3000   1.0696   0.0000   0.7389
   1.3000   1.0262   0.3013   0.7389
   1.3000   0.8998   0.5782   0.7389
   1.3000   0.7004   0.8083   0.7389
   1.3000   0.4443   0.9729   0.7389
   1.3000   0.1522   1.0587   0.7389
   1.3000  -0.1522   1.0587   0.7389
   1.3000  -0.4443   0.9729   0.7389
   1.3000  -0.7004   0.8083   0.7389
   1.3000  -0.8998   0.5782   0.7389
   1.3000  -1.0262   0.3013   0.7389
   1.3000  -1.0696   0.0000   0.7389
   1.3000  -1.0262  -0.3013   0.7389
   1.3000  -0.8998  -0.5782   0.7389
   1.3000  -0.7004  -0.8083   0.7389
   1.3000  -0.4443  -0.9729   0.7389
   1.3000  -0.1522  -1.0587   0.7389
   1.3000   0.1522  -1.0587   0.7389
   1.3000   0.4443  -0.9729   0.7389
   1.3000   0.7004  -0.8083   0.7389
   1.3000   0.8998  -0.5782   0.7389
   1.3000   1.0262  -0.3013   0.7389
   1.3000   1.0696   0.0000   0.7389
   1.3000   1.2153   0.0000   0.4616
   1.3000   1.1771   0.3022   0.4616
   1.3000   1.0650   0.5855   0.4616
   1.3000   0.8859   0.8319   0.4616
   1.3000   0.6512   1.0261   0.4616
   1.3000   0.3755   1.1558   0.4616
   1.3000   0.0763   1.2129   0.4616
   1.3000  -0.2277   1.1937   0.4616
   1.3000  -0.5174   1.0996   0.4616
   1.3000  -0.7746   0.9364   0.4616
   1.3000  -0.9832   0.7143   0.4616
   1.3000  -1.1299   0.4474   0.4616
   1.3000  -1.2057   0.1523   0.4616
   1.3000  -1.2057  -0.1523   0.4616
   1.3000  -1.1299  -0.4474   0.4616
   1.3000  -0.9832  -0.7143   0.4616
   1.3000  -0.7746  -0.9364   0.4616
   1.3000  -0.5174  -1.0996   0.4616
   1.3000  -0.2277  -1.1937   0.4616
   1.3000   0.0763  -1.2129   0.4616
   1.3000   0.3755  -1.1558   0.4616
   1.3000   0.6512  -1.0261   0.4616
   1.3000   0.8859  -0.8319   0.4616
   1.3000   1.0650  -0.5855   0.4616
   1.3000   1.1771  -0.3022   0.4616
   1.3000   1.2153  -0.0000   0.4616
   1.3000   1.2904   0.0000   0.1575
   1.3000   1.2529   0.3088   0.1575
   1.3000   1.1426   0.5997   0.1575
   1.3000   0.9659   0.8557   0.1575
   1.3000   0.7330   1.0620   0.1575
   1.3000   0.4576   1.2066   0.1575
   1.3000   0.1555   1.2810   0.1575
   1.3000  -0.1555   1.2810   0.1575
   1.3000  -0.4576   1.2066   0.1575
   1.3000  -0.7330   1.0620   0.1575
   1.3000  -0.9659   0.8557   0.1575
   1.3000  -1.1426   0.5997   0.1575
   1.3000  -1.2529   0.3088   0.1575
   1.3000  -1.2904  -0.0000   0.1575
   1.3000  -1.2529  -0.3088   0.1575
   1.3000  -1.1426  -0.5997   0.1575
   1.3000  -0.9659  -0.8557   0.1575
   1.3000  -0.7330  -1.0620   0.1575
   1.3000  -0.4576  -1.2066   0.1575
   1.3000  -0.1555  -1.2810   0.1575
   1.3000   0.1555  -1.2810   0.1575
   1.3000   0.4576  -1.2066   0.1575
   1.3000   0.7330  -1.0620   0.1575
   1.3000   0.9659  -0.8557   0.1575
   1.3000   1.1426  -0.5997   0.1575
   1.3000   1.2529  -0.3088   0.1575
   1.3000   1.2904   0.0000   0.1575
   1.3000   1.2906   0.0000  -0.1557
   1.3000   1.2531   0.3089  -0.1557
   1.3000   1.1428   0.5998  -0.1557
   1.3000   0.9661   0.8559  -0.1557
   1.3000   0.7332   1.0622  -0.1557
   1.3000   0.4577   1.2068  -0.1557
   1.3000   0.1556   1.2812  -0.1557
   1.3000  -0.1556   1.2812  -0.1557
   1.3000  -0.4577   1.2068  -0.1557
   1.3000  -0.7332   1.0622  -0.1557
   1.3000  -0.9661   0.8559  -0.1557
   1.3000  -1.1428   0.5998  -0.1557
   1.3000  -1.2531   0.3089  -0.1557
   1.3000  -1.2906  -0.0000  -0.1557
   1.3000  -1.2531  -0.3089  -0.1557
   1.3000  -1.1428  -0.5998  -0.1557
   1.3000  -0.9661  -0.8559  -0.1557
   1.3000  -0.7332  -1.0622  -0.1557
   1.3000  -0.4577  -1.2068  -0.1557
   1.3000  -0.1556  -1.2812  -0.1557
   1.3000   0.1556  -1.2812  -0.1557
   1.3000   0.4577  -1.2068  -0.1557
   1.3000   0.7332  -1.0622  -0.1557
   1.3000   0.9661  -0.8559  -0.1557
   1.3000   1.1428  -0.5998  -0.1557
   1.3000   1.2531  -0.3089  -0.1557
   1.3000   1.2906   0.0000  -0.1557
   1.3000   1.2159   0.0000  -0.4599
   1.3000   1.1777   0.3024  -0.4599
   1.3000   1.0655   0.5858  -0.4599
   1.3000   0.8864   0.8324  -0.4599
   1.3000   0.6515   1.0266  -0.4599
   1.3000   0.3757   1.1564  -0.4599
   1.3000   0.0763   1.2135  -0.4599
   1.3000  -0.2278   1.1944  -0.4599
   1.3000  -0.5177   1.1002  -0.4599
   1.3000  -0.7751   0.9369  -0.4599
   1.3000  -0.9837   0.7147  -0.4599
   1.3000  -1.1305   0.4476  -0.4599
   1.3000  -1.2063   0.1524  -0.4599
   1.3000  -1.2063  -0.1524  -0.4599
   1.3000  -1.1305  -0.4476  -0.4599
   1.3000  -0.9837  -0.7147  -0.4599
   1.3000  -0.7751  -0.9369  -0.4599
   1.3000  -0.5177  -1.1002  -0.4599
   1.3000  -0.2278  -1.1944  -0.4599
   1.3000   0.0763  -1.2135  -0.4599
   1.3000   0.3757  -1.1564  -0.4599
   1.3000   0.6515  -1.0266  -0.4599
   1.3000   0.8864  -0.8324  -0.4599
   1.3000   1.0655  -0.5858  -0.4599
   1.3000   1.1777  -0.3024  -0.4599
   1.3000   1.2159  -0.0000  -0.4599
   1.3000   1.0706   0.0000  -0.7374
   1.3000   1.0272   0.3016  -0.7374
   1.3000   0.9006   0.5788  -0.7374
   1.3000   0.7011   0.8091  -0.7374
   1.3000   0.4447   0.9738  -0.7374
   1.3000   0.1524   1.0597  -0.7374
   1.3000  -0.1524   1.0597  -0.7374
   1.3000  -0.4447   0.9738  -0.7374
   1.3000  -0.7011   0.8091  -0.7374
   1.3000  -0.9006   0.5788  -0.7374
   1.3000  -1.0272   0.3016  -0.7374
   1.3000  -1.0706   0.0000  -0.7374
   1.3000  -1.0272  -0.3016  -0.7374
   1.3000  -0.9006  -0.5788  -0.7374
   1.3000  -0.7011  -0.8091  -0.7374
   1.3000  -0.4447  -0.9738  -0.7374
   1.3000  -0.1524  -1.0597  -0.7374
   1.3000   0.1524  -1.0597  -0.7374
   1.3000   0.4447  -0.9738  -0.7374
   1.3000   0.7011  -0.8091  -0.7374
   1.3000   0.9006  -0.5788  -0.7374
   1.3000   1.0272  -0.3016  -0.7374
   1.3000   1.0706   0.0000  -0.7374
   1.3000   0.8631   0.0000  -0.9721
   1.3000   0.8111   0.2952  -0.9721
   1.3000   0.6612   0.5548  -0.9721
   1.3000   0.4316   0.7475  -0.9721
   1.3000   0.1499   0.8500  -0.9721
   1.3000  -0.1499   0.8500  -0.9721
   1.3000  -0.4316   0.7475  -0.9721
   1.3000  -0.6612   0.5548  -0.9721
   1.3000  -0.8111   0.2952  -0.9721
   1.3000  -0.8631  -0.0000  -0.9721
   1.3000  -0.8111  -0.2952  -0.9721
   1.3000  -0.6612  -0.5548  -0.9721
   1.3000  -0.4316  -0.7475  -0.9721
   1.3000  -0.1499  -0.8500  -0.9721
   1.3000   0.1499  -0.8500  -0.9721
   1.3000   0.4316  -0.7475  -0.9721
   1.3000   0.6612  -0.5548  -0.9721
   1.3000   0.8111  -0.2952  -0.9721
   1.3000   0.6055   0.0000  -1.1504
   1.3000   0.5361   0.2814  -1.1504
   1.3000   0.3440   0.4983  -1.1504
   1.3000   0.0730   0.6011  -1.1504
   1.3000  -0.2147   0.5662  -1.1504
   1.3000  -0.4532   0.4015  -1.1504
   1.3000  -0.5879   0.1449  -1.1504
   1.3000  -0.5879  -0.1449  -1.1504
   1.3000  -0.4532  -0.4015  -1.1504
   1.3000  -0.2147  -0.5662  -1.1504
   1.3000   0.0730  -0.6011  -1.1504
   1.3000   0.3440  -0.4983  -1.1504
   1.3000   0.5361  -0.2814  -1.1504
   1.3000   0.6055   0.0000  -1.1504
   1.3000   0.3127   0.0000  -1.2618
   1.3000   0.1950   0.2445  -1.2618
   1.3000  -0.0696   0.3049  -1.2618
   1.3000  -0.2818   0.1357  -1.2618
   1.3000  -0.2818  -0.1357  -1.2618
   1.3000  -0.0696  -0.3049  -1.2618
   1.3000   0.1950  -0.2445  -1.2618
   1.3000   0.3127  -0.0000  -1.2618
   1.3000   0.0018   0.0000  -1.3000
   1.6590   0.0000   0.0000   1.6590
   1.6590   0.3114   0.0000   1.6295
   1.6590   0.1942   0.2435   1.6295
   1.6590  -0.0693   0.3036   1.6295
   1.6590  -0.2806   0.1351   1.6295
   1.6590  -0.2806  -0.1351   1.6295
   1.6590  -0.0693  -0.3036   1.6295
   1.6590   0.1942  -0.2435   1.6295
   1.6590   0.3114  -0.0000   1.6295
   1.6590   0.6118   0.0000   1.5421
   1.6590   0.5417   0.2843   1.5421
   1.6590   0.3475   0.5035   1.5421
   1.6590   0.0737   0.6073   1.5421
   1.6590  -0.2169   0.5720   1.5421
   1.6590  -0.4579   0.4057   1.5421
   1.6590  -0.5940   0.1464   1.5421
   1.6590  -0.5940  -0.1464   1.5421
   1.6590  -0.4579  -0.4057   1.5421
   1.6590  -0.2169  -0.5720   1.5421
   1.6590   0.0737  -0.6073   1.5421
   1.6590   0.3475  -0.5035   1.5421
   1.6590   0.5417  -0.2843   1.5421
   1.6590   0.6118   0.0000   1.5421
   1.6590   0.8904   0.0000   1.3998
   1.6590   0.8367   0.3045   1.3998
   1.6590   0.6821   0.5723   1.3998
   1.6590   0.4452   0.7711   1.3998
   1.6590   0.1546   0.8769   1.3998
   1.6590  -0.1546   0.8769   1.3998
   1.6590  -0.4452   0.7711   1.3998
   1.6590  -0.6821   0.5723   1.3998
   1.6590  -0.8367   0.3045   1.3998
   1.6590  -0.8904  -0.0000   1.3998
   1.6590  -0.8367  -0.3045   1.3998
   1.6590  -0.6821  -0.5723   1.3998
   1.6590  -0.4452  -0.7711   1.3998
   1.6590  -0.1546  -0.8769   1.3998
   1.6590   0.1546  -0.8769   1.3998
   1.6590   0.4452  -0.7711   1.3998
   1.6590   0.6821  -0.5723   1.3998
   1.6590   0.8367  -0.3045   1.3998
   1.6590   1.1374   0.0000   1.2078
   1.6590   1.0952   0.3069   1.2078
   1.6590   0.9718   0.5909   1.2078
   1.6590   0.7763   0.8312   1.2078
   1.6590   0.5233   1.0098   1.2078
   1.6590   0.2314   1.1136   1.2078
   1.6590  -0.0776   1.1347   1.2078
   1.6590  -0.3809   1.0717   1.2078
   1.6590  -0.6559   0.9292   1.2078
   1.6590  -0.8823   0.7178   1.2078
   1.6590  -1.0432   0.4531   1.2078
   1.6590  -1.1268   0.1549   1.2078
   1.6590  -1.1268  -0.1549   1.2078
   1.6590  -1.0432  -0.4531   1.2078
   1.6590  -0.8823  -0.7178   1.2078
   1.6590  -0.6559  -0.9292   1.2078
   1.6590  -0.3809  -1.0717   1.2078
   1.6590  -0.0776  -1.1347   1.2078
   1.6590   0.2314  -1.1136   1.2078
   1.6590   0.5233  -1.0098   1.2078
   1.6590   0.7763  -0.8312   1.2078
   1.6590   0.9718  -0.5910   1.2078
   1.6590   1.0952  -0.3069   1.2078
   1.6590   1.1374  -0.0000   1.2078
   1.6590   1.3439   0.0000   0.9728
   1.6590   1.3076   0.3099   0.9728
   1.6590   1.2009   0.6031   0.9728
   1.6590   1.0295   0.8638   0.9728
   1.6590   0.8025   1.0779   0.9728
   1.6590   0.5323   1.2340   0.9728
   1.6590   0.2334   1.3234   0.9728
   1.6590  -0.0781   1.3416   0.9728
   1.6590  -0.3854   1.2874   0.9728
   1.6590  -0.6719   1.1638   0.9728
   1.6590  -0.9222   0.9775   0.9728
   1.6590  -1.1228   0.7385   0.9728
   1.6590  -1.2628   0.4596   0.9728
   1.6590  -1.3348   0.1560   0.9728
   1.6590  -1.3348  -0.1560   0.9728
   1.6590  -1.2628  -0.4596   0.9728
   1.6590  -1.1228  -0.7385   0.9728
   1.6590  -0.9222  -0.9775   0.9728
   1.6590  -0.6719  -1.1638   0.9728
   1.6590  -0.3854  -1.2874   0.9728
   1.6590  -0.0781  -1.3416   0.9728
   1.6590   0.2334  -1.3234   0.9728
   1.6590   0.5323  -1.2340   0.9728
   1.6590   0.8025  -1.0779   0.9728
   1.6590   1.0295  -0.8638   0.9728
   1.6590   1.2009  -0.6031   0.9728
   1.6590   1.3076  -0.3099   0.9728
   1.6590   1.3439   0.0000   0.9728
   1.6590   1.5026   0.0000   0.7032
   1.6590   1.4718   0.3025   0.7032
   1.6590   1.3808   0.5926   0.7032
   1.6590   1.2333   0.8584   0.7032
   1.6590   1.0352   1.0891   0.7032
   1.6590   0.7948   1.2752   0.7032
   1.6590   0.5219   1.4091   0.7032
   1.6590   0.2275   1.4853   0.7032
   1.6590  -0.0761   1.5007   0.7032
   1.6590  -0.3766   1.4546   0.7032
   1.6590  -0.6617   1.3490   0.7032
   1.6590  -0.9197   1.1882   0.7032
   1.6590  -1.1401   0.9787   0.7032
   1.6590  -1.3138   0.7292   0.7032
   1.6590  -1.4337   0.4498   0.7032
   1.6590  -1.4949   0.1520   0.7032
   1.6590  -1.4949  -0.1520   0.7032
   1.6590  -1.4337  -0.4498   0.7032
   1.6590  -1.3138  -0.7292   0.7032
   1.6590  -1.1401  -0.9787   0.7032
   1.6590  -0.9197  -1.1882   0.7032
   1.6590  -0.6617  -1.3490   0.7032
   1.6590  -0.3766  -1.4546   0.7032
   1.6590  -0.0761  -1.5007   0.7032
   1.6590   0.2275  -1.4853   0.7032
   1.6590   0.5219  -1.4091   0.7032
   1.6590   0.7948  -1.2752   0.7032
   1.6590   1.0352  -1.0891   0.7032
   1.6590   1.2333  -0.8584   0.7032
   1.6590   1.3808  -0.5926   0.7032
   1.6590   1.4718  -0.3025   0.7032
   1.6590   1.6079   0.0000   0.4086
   1.6590   1.5788   0.3043   0.4086
   1.6590   1.4927   0.5976   0.4086
   1.6590   1.3526   0.8693   0.4086
   1.6590   1.1637   1.1096   0.4086
   1.6590   0.9327   1.3097   0.4086
   1.6590   0.6679   1.4626   0.4086
   1.6590   0.3791   1.5626   0.4086
   1.6590   0.0765   1.6061   0.4086
   1.6590  -0.2288   1.5915   0.4086
   1.6590  -0.5259   1.5195   0.4086
   1.6590  -0.8039   1.3925   0.4086
   1.6590  -1.0529   1.2152   0.4086
   1.6590  -1.2639   0.9939   0.4086
   1.6590  -1.4291   0.7368   0.4086
   1.6590  -1.5428   0.4530   0.4086
   1.6590  -1.6006   0.1528   0.4086
   1.6590  -1.6006  -0.1528   0.4086
   1.6590  -1.5428  -0.4530   0.4086
   1.6590  -1.4291  -0.7368   0.4086
   1.6590  -1.2639  -0.9939   0.4086
   1.6590  -1.0529  -1.2152   0.4086
   1.6590  -0.8039  -1.3925   0.4086
   1.6590  -0.5259  -1.5195   0.4086
   1.6590  -0.2288  -1.5915   0.4086
   1.6590   0.0765  -1.6061   0.4086
   1.6590   0.3791  -1.5626   0.4086
   1.6590   0.6679  -1.4626   0.4086
   1.6590   0.9327  -1.3097   0.4086
   1.6590   1.1637  -1.1096   0.4086
   1.6590   1.3526  -0.8693   0.4086
   1.6590   1.4927  -0.5976   0.4086
   1.6590   1.5788  -0.3043   0.4086
   1.6590   1.6079  -0.0000   0.4086
   1.6590   1.6560   0.0000   0.0995
   1.6590   1.6278   0.3043   0.0995
   1.6590   1.5442   0.5982   0.0995
   1.6590   1.4080   0.8718   0.0995
   1.6590   1.2238   1.1156   0.0995
   1.6590   0.9980   1.3215   0.0995
   1.6590   0.7381   1.4824   0.0995
   1.6590   0.4532   1.5928   0.0995
   1.6590   0.1528   1.6489   0.0995
   1.6590  -0.1528   1.6489   0.0995
   1.6590  -0.4532   1.5928   0.0995
   1.6590  -0.7381   1.4824   0.0995
   1.6590  -0.9980   1.3215   0.0995
   1.6590  -1.2238   1.1156   0.0995
   1.6590  -1.4080   0.8718   0.0995
   1.6590  -1.5442   0.5982   0.0995
   1.6590  -1.6278   0.3043   0.0995
   1.6590  -1.6560  -0.0000   0.0995
   1.6590  -1.6278  -0.3043   0.0995
   1.6590  -1.5442  -0.5982   0.0995
   1.6590  -1.4080  -0.8718   0.0995
   1.6590  -1.2238  -1.1156   0.0995
   1.6590  -0.9980  -1.3215   0.0995
   1.6590  -0.7381  -1.4824   0.0995
   1.6590  -0.4532  -1.5928   0.0995
   1.6590  -0.1528  -1.6489   0.0995
   1.6590   0.1528  -1.6489   0.0995
   1.6590   0.4532  -1.5928   0.0995
   1.6590   0.7381  -1.4824   0.0995
   1.6590   0.9980  -1.3215   0.0995
   1.6590   1.2238  -1.1156   0.0995
   1.6590   1.4080  -0.8718   0.0995
   1.6590   1.5442  -0.5982   0.0995
   1.6590   1.6278  -0.3043   0.0995
   1.6590   1.6560  -0.0000   0.0995
   1.6590   1.6453   0.0000  -0.2131
   1.6590   1.6155   0.3114  -0.2131
   1.6590   1.5274   0.6115  -0.2131
   1.6590   1.3841   0.8895  -0.2131
   1.6590   1.1907   1.1354  -0.2131
   1.6590   0.9543   1.3402  -0.2131
   1.6590   0.6835   1.4966  -0.2131
   1.6590   0.3879   1.5989  -0.2131
   1.6590   0.0783   1.6434  -0.2131
   1.6590  -0.2341   1.6285  -0.2131
   1.6590  -0.5381   1.5548  -0.2131
   1.6590  -0.8226   1.4248  -0.2131
   1.6590  -1.0774   1.2434  -0.2131
   1.6590  -1.2933   1.0170  -0.2131
   1.6590  -1.4624   0.7539  -0.2131
   1.6590  -1.5786   0.4635  -0.2131
   1.6590  -1.6378   0.1564  -0.2131
   1.6590  -1.6378  -0.1564  -0.2131
   1.6590  -1.5786  -0.4635  -0.2131
   1.6590  -1.4624  -0.7539  -0.2131
   1.6590  -1.2933  -1.0170  -0.2131
   1.6590  -1.0774  -1.2434  -0.2131
   1.6590  -0.8226  -1.4248  -0.2131
   1.6590  -0.5381  -1.5548  -0.2131
   1.6590  -0.2341  -1.6285  -0.2131
   1.6590   0.0783  -1.6434  -0.2131
   1.6590   0.3879  -1.5989  -0.2131
   1.6590   0.6835  -1.4966  -0.2131
   1.6590   0.9543  -1.3402  -0.2131
   1.6590   1.1907  -1.1354  -0.2131
   1.6590   1.3841  -0.8895  -0.2131
   1.6590   1.5274  -0.6115  -0.2131
   1.6590   1.6155  -0.3114  -0.2131
   1.6590   1.6453  -0.0000  -0.2131
   1.6590   1.5760   0.0000  -0.5182
   1.6590   1.5457   0.3075  -0.5182
   1.6590   1.4560   0.6031  -0.5182
   1.6590   1.3104   0.8756  -0.5182
   1.6590   1.1144   1.1144  -0.5182
   1.6590   0.8756   1.3104  -0.5182
   1.6590   0.6031   1.4560  -0.5182
   1.6590   0.3075   1.5457  -0.5182
   1.6590  -0.0000   1.5760  -0.5182
   1.6590  -0.3075   1.5457  -0.5182
   1.6590  -0.6031   1.4560  -0.5182
   1.6590  -0.8756   1.3104  -0.5182
   1.6590  -1.1144   1.1144  -0.5182
   1.6590  -1.3104   0.8756  -0.5182
   1.6590  -1.4560   0.6031  -0.5182
   1.6590  -1.5457   0.3075  -0.5182
   1.6590  -1.5760  -0.0000  -0.5182
   1.6590  -1.5457  -0.3075  -0.5182
   1.6590  -1.4560  -0.6031  -0.5182
   1.6590  -1.3104  -0.8756  -0.5182
   1.6590  -1.1144  -1.1144  -0.5182
   1.6590  -0.8756  -1.3104  -0.5182
   1.6590  -0.6031  -1.4560  -0.5182
   1.6590  -0.3075  -1.5457  -0.5182
   1.6590   0.0000  -1.5760  -0.5182
   1.6590   0.3075  -1.5457  -0.5182
   1.6590   0.6031  -1.4560  -0.5182
   1.6590   0.8756  -1.3104  -0.5182
   1.6590   1.1144  -1.1144  -0.5182
   1.6590   1.3104  -0.8756  -0.5182
   1.6590   1.4560  -0.6031  -0.5182
   1.6590   1.5457  -0.3075  -0.5182
   1.6590   1.4507   0.0000  -0.8048
   1.6590   1.4190   0.3016  -0.8048
   1.6590   1.3253   0.5901  -0.8048
   1.6590   1.1737   0.8527  -0.8048
   1.6590   0.9707   1.0781  -0.8048
   1.6590   0.7254   1.2564  -0.8048
   1.6590   0.4483   1.3797  -0.8048
   1.6590   0.1516   1.4428  -0.8048
   1.6590  -0.1516   1.4428  -0.8048
   1.6590  -0.4483   1.3797  -0.8048
   1.6590  -0.7254   1.2564  -0.8048
   1.6590  -0.9707   1.0781  -0.8048
   1.6590  -1.1737   0.8527  -0.8048
   1.6590  -1.3253   0.5901  -0.8048
   1.6590  -1.4190   0.3016  -0.8048
   1.6590  -1.4507  -0.0000  -0.8048
   1.6590  -1.4190  -0.3016  -0.8048
   1.6590  -1.3253  -0.5901  -0.8048
   1.6590  -1.1737  -0.8527  -0.8048
   1.6590  -0.9707  -1.0781  -0.8048
   1.6590  -0.7254  -1.2564  -0.8048
   1.6590  -0.4483  -1.3797  -0.8048
   1.6590  -0.1516  -1.4428  -0.8048
   1.6590   0.1516  -1.4428  -0.8048
   1.6590   0.4483  -1.3797  -0.8048
   1.6590   0.7254  -1.2564  -0.8048
   1.6590   0.9707  -1.0781  -0.8048
   1.6590   1.1737  -0.8527  -0.8048
   1.6590   1.3253  -0.5901  -0.8048
   1.6590   1.4190  -0.3016  -0.8048
   1.6590   1.2738   0.0000  -1.0628
   1.6590   1.2368   0.3049  -1.0628
   1.6590   1.1279   0.5920  -1.0628
   1.6590   0.9535   0.8447  -1.0628
   1.6590   0.7236   1.0484  -1.0628
   1.6590   0.4517   1.1911  -1.0628
   1.6590   0.1535   1.2646  -1.0628
   1.6590  -0.1535   1.2646  -1.0628
   1.6590  -0.4517   1.1911  -1.0628
   1.6590  -0.7236   1.0484  -1.0628
   1.6590  -0.9535   0.8447  -1.0628
   1.6590  -1.1279   0.5920  -1.0628
   1.6590  -1.2368   0.3048  -1.0628
   1.6590  -1.2738  -0.0000  -1.0628
   1.6590  -1.2368  -0.3049  -1.0628
   1.6590  -1.1279  -0.5920  -1.0628
   1.6590  -0.9535  -0.8447  -1.0628
   1.6590  -0.7236  -1.0484  -1.0628
   1.6590  -0.4517  -1.1911  -1.0628
   1.6590  -0.1535  -1.2646  -1.0628
   1.6590   0.1535  -1.2646  -1.0628
   1.6590   0.4517  -1.1911  -1.0628
   1.6590   0.7236  -1.0483  -1.0628
   1.6590   0.9535  -0.8447  -1.0628
   1.6590   1.1279  -0.5920  -1.0628
   1.6590   1.2368  -0.3048  -1.0628
   1.6590   1.2738   0.0000  -1.0628
   1.6590   1.0517   0.0000  -1.2831
   1.6590   1.0091   0.2963  -1.2831
   1.6590   0.8847   0.5686  -1.2831
   1.6590   0.6887   0.7948  -1.2831
   1.6590   0.4369   0.9566  -1.2831
   1.6590   0.1497   1.0410  -1.2831
   1.6590  -0.1497   1.0410  -1.2831
   1.6590  -0.4369   0.9566  -1.2831
   1.6590  -0.6887   0.7948  -1.2831
   1.6590  -0.8847   0.5686  -1.2831
   1.6590  -1.0091   0.2963  -1.2831
   1.6590  -1.0517   0.0000  -1.2831
   1.6590  -1.0091  -0.2963  -1.2831
   1.6590  -0.8847  -0.5686  -1.2831
   1.6590  -0.6887  -0.7948  -1.2831
   1.6590  -0.4369  -0.9566  -1.2831
   1.6590  -0.1497  -1.0410  -1.2831
   1.6590   0.1497  -1.0410  -1.2831
   1.6590   0.4369  -0.9566  -1.2831
   1.6590   0.6887  -0.7948  -1.2831
   1.6590   0.8847  -0.5686  -1.2831
   1.6590   1.0091  -0.2963  -1.2831
   1.6590   1.0517   0.0000  -1.2831
   1.6590   0.7921   0.0000  -1.4577
   1.6590   0.7318   0.3031  -1.4577
   1.6590   0.5601   0.5601  -1.4577
   1.6590   0.3031   0.7318  -1.4577
   1.6590  -0.0000   0.7921  -1.4577
   1.6590  -0.3031   0.7318  -1.4577
   1.6590  -0.5601   0.5601  -1.4577
   1.6590  -0.7318   0.3031  -1.4577
   1.6590  -0.7921  -0.0000  -1.4577
   1.6590  -0.7318  -0.3031  -1.4577
   1.6590  -0.5601  -0.5601  -1.4577
   1.6590  -0.3031  -0.7318  -1.4577
   1.6590   0.0000  -0.7921  -1.4577
   1.6590   0.3031  -0.7318  -1.4577
   1.6590   0.5601  -0.5601  -1.4577
   1.6590   0.7318  -0.3031  -1.4577
   1.6590   0.5044   0.0000  -1.5805
   1.6590   0.4243   0.2727  -1.5805
   1.6590   0.2095   0.4588  -1.5805
   1.6590  -0.0718   0.4993  -1.5805
   1.6590  -0.3303   0.3812  -1.5805
   1.6590  -0.4840   0.1421  -1.5805
   1.6590  -0.4840  -0.1421  -1.5805
   1.6590  -0.3303  -0.3812  -1.5805
   1.6590  -0.0718  -0.4993  -1.5805
   1.6590   0.2095  -0.4588  -1.5805
   1.6590   0.4243  -0.2727  -1.5805
   1.6590   0.5044  -0.0000  -1.5805
   1.6590   0.1987   0.0000  -1.6471
   1.6590  -0.0000   0.1987  -1.6471
   1.6590  -0.1987  -0.0000  -1.6471
   1.6590   0.0000  -0.1987  -1.6471
   1.6090   0.0000   0.0000   1.6090
   1.6090   0.3114   0.0000   1.5786
   1.6090   0.1942   0.2435   1.5786
   1.6090  -0.0693   0.3036   1.5786
   1.6090  -0.2806   0.1351   1.5786
   1.6090  -0.2806  -0.1351   1.5786
   1.6090  -0.0693  -0.3036   1.5786
   1.6090   0.1942  -0.2435   1.5786
   1.6090   0.3114  -0.0000   1.5786
   1.6090   0.6111   0.0000   1.4884
   1.6090   0.5411   0.2840   1.4884
   1.6090   0.3471   0.5029   1.4884
   1.6090   0.0737   0.6066   1.4884
   1.6090  -0.2167   0.5714   1.4884
   1.6090  -0.4574   0.4052   1.4884
   1.6090  -0.5933   0.1462   1.4884
   1.6090  -0.5933  -0.1462   1.4884
   1.6090  -0.4574  -0.4052   1.4884
   1.6090  -0.2167  -0.5714   1.4884
   1.6090   0.0737  -0.6066   1.4884
   1.6090   0.3471  -0.5029   1.4884
   1.6090   0.5411  -0.2840   1.4884
   1.6090   0.6111   0.0000   1.4884
   1.6090   0.8876   0.0000   1.3420
   1.6090   0.8341   0.3036   1.3420
   1.6090   0.6799   0.5705   1.3420
   1.6090   0.4438   0.7687   1.3420
   1.6090   0.1541   0.8741   1.3420
   1.6090  -0.1541   0.8741   1.3420
   1.6090  -0.4438   0.7687   1.3420
   1.6090  -0.6799   0.5705   1.3420
   1.6090  -0.8341   0.3036   1.3420
   1.6090  -0.8876  -0.0000   1.3420
   1.6090  -0.8341  -0.3036   1.3420
   1.6090  -0.6799  -0.5705   1.3420
   1.6090  -0.4438  -0.7687   1.3420
   1.6090  -0.1541  -0.8741   1.3420
   1.6090   0.1541  -0.8741   1.3420
   1.6090   0.4438  -0.7687   1.3420
   1.6090   0.6799  -0.5705   1.3420
   1.6090   0.8341  -0.3036   1.3420
   1.6090   1.1306   0.0000   1.1449
   1.6090   1.0886   0.3050   1.1449
   1.6090   0.9660   0.5874   1.1449
   1.6090   0.7717   0.8263   1.1449
   1.6090   0.5201   1.0038   1.1449
   1.6090   0.2300   1.1069   1.1449
   1.6090  -0.0772   1.1279   1.1449
   1.6090  -0.3786   1.0653   1.1449
   1.6090  -0.6520   0.9236   1.1449
   1.6090  -0.8770   0.7135   1.1449
   1.6090  -1.0370   0.4504   1.1449
   1.6090  -1.1200   0.1539   1.1449
   1.6090  -1.1200  -0.1539   1.1449
   1.6090  -1.0370  -0.4504   1.1449
   1.6090  -0.8770  -0.7135   1.1449
   1.6090  -0.6520  -0.9236   1.1449
