  2.108000  1.842579  0.181458 -1.007790
  2.108000  1.815924  0.361170 -1.007790
  2.108000  1.771785  0.537403 -1.007790
  2.108000  1.710586  0.708463 -1.007790
  2.108000  1.632917  0.872701 -1.007790
  2.108000  1.539525  1.028536 -1.007790
  2.108000  1.431310  1.174468 -1.007790
  2.108000  1.309314  1.309092 -1.007790
  2.108000  1.174711  1.431111 -1.007790
  2.108000  1.028797  1.539350 -1.007790
  2.108000  0.872978  1.632769 -1.007790
  2.108000  0.708753  1.710466 -1.007790
  2.108000  0.537704  1.771693 -1.007790
  2.108000  0.361478  1.815863 -1.007790
  2.108000  0.181771  1.842548 -1.007790
  2.108000  0.000314  1.851492 -1.007790
  2.108000 -0.181146  1.842610 -1.007790
  2.108000 -0.360861  1.815985 -1.007790
  2.108000 -0.537103  1.771876 -1.007790
  2.108000 -0.708173  1.710706 -1.007790
  2.108000 -0.872424  1.633065 -1.007790
  2.108000 -1.028275  1.539699 -1.007790
  2.108000 -1.174225  1.431509 -1.007790
  2.108000 -1.308869  1.309536 -1.007790
  2.108000 -1.430911  1.174954 -1.007790
  2.108000 -1.539176  1.029058 -1.007790
  2.108000 -1.632620  0.873255 -1.007790
  2.108000 -1.710345  0.709043 -1.007790
  2.108000 -1.771602  0.538005 -1.007790
  2.108000 -1.815801  0.361786 -1.007790
  2.108000 -1.842517  0.182084 -1.007790
  2.108000 -1.851492  0.000628 -1.007790
  2.108000 -1.842640 -0.180833 -1.007790
  2.108000 -1.816047 -0.360553 -1.007790
  2.108000 -1.771967 -0.536802 -1.007790
  2.108000 -1.710826 -0.707882 -1.007790
  2.108000 -1.633213 -0.872147 -1.007790
  2.108000 -1.539874 -1.028013 -1.007790
  2.108000 -1.431709 -1.173982 -1.007790
  2.108000 -1.309758 -1.308647 -1.007790
  2.108000 -1.175197 -1.430712 -1.007790
  2.108000 -1.029320 -1.539001 -1.007790
  2.108000 -0.873532 -1.632472 -1.007790
  2.108000 -0.709333 -1.710225 -1.007790
  2.108000 -0.538305 -1.771511 -1.007790
  2.108000 -0.362094 -1.815740 -1.007790
  2.108000 -0.182397 -1.842486 -1.007790
  2.108000 -0.000943 -1.851492 -1.007790
  2.108000  0.180520 -1.842671 -1.007790
  2.108000  0.360245 -1.816108 -1.007790
  2.108000  0.536502 -1.772058 -1.007790
  2.108000  0.707592 -1.710946 -1.007790
  2.108000  0.871869 -1.633361 -1.007790
  2.108000  1.027752 -1.540049 -1.007790
  2.108000  1.173739 -1.431908 -1.007790
  2.108000  1.308425 -1.309980 -1.007790
  2.108000  1.430513 -1.175439 -1.007790
  2.108000  1.538827 -1.029581 -1.007790
  2.108000  1.632324 -0.873809 -1.007790
  2.108000  1.710104 -0.709624 -1.007790
  2.108000  1.771419 -0.538606 -1.007790
  2.108000  1.815678 -0.362402 -1.007790
  2.108000  1.842455 -0.182709 -1.007790
  2.108000  1.851492 -0.001257 -1.007790
  2.108000  1.748444  0.181427 -1.163483
  2.108000  1.720381  0.360915 -1.163483
  2.108000  1.673943  0.536549 -1.163483
  2.108000  1.609626  0.706452 -1.163483
  2.108000  1.528117  0.868810 -1.163483
  2.108000  1.430286  1.021887 -1.163483
  2.108000  1.317178  1.164050 -1.163483
  2.108000  1.190002  1.293780 -1.163483
  2.108000  1.050115  1.409692 -1.163483
  2.108000  0.899012  1.510546 -1.163483
  2.108000  0.738307  1.595266 -1.163483
  2.108000  0.569716  1.662948 -1.163483
  2.108000  0.395039  1.712867 -1.163483
  2.108000  0.216144  1.744492 -1.163483
  2.108000  0.034940  1.757484 -1.163483
  2.108000 -0.146637  1.751705 -1.163483
  2.108000 -0.326648  1.727215 -1.163483
  2.108000 -0.503171  1.684277 -1.163483
  2.108000 -0.674318  1.623350 -1.163483
  2.108000 -0.838264  1.545084 -1.163483
  2.108000 -0.993256  1.450315 -1.163483
  2.108000 -1.137639  1.340055 -1.163483
  2.108000 -1.269871  1.215483 -1.163483
  2.108000 -1.388540  1.077928 -1.163483
  2.108000 -1.492378  0.928859 -1.163483
  2.108000 -1.580276  0.769869 -1.163483
  2.108000 -1.651295  0.602657 -1.163483
  2.108000 -1.704677  0.429008 -1.163483
  2.108000 -1.739851  0.250776 -1.163483
  2.108000 -1.756442  0.069866 -1.163483
  2.108000 -1.754273 -0.111790 -1.163483
  2.108000 -1.733367 -0.292253 -1.163483
  2.108000 -1.693946 -0.469593 -1.163483
  2.108000 -1.636433 -0.641918 -1.163483
  2.108000 -1.561441 -0.807387 -1.163483
  2.108000 -1.469771 -0.964232 -1.163483
  2.108000 -1.362403 -1.110779 -1.163483
  2.108000 -1.240483 -1.245461 -1.163483
  2.108000 -1.105314 -1.366840 -1.163483
  2.108000 -0.958339 -1.473621 -1.163483
  2.108000 -0.801128 -1.564662 -1.163483
  2.108000 -0.635360 -1.638990 -1.163483
  2.108000 -0.462806 -1.695813 -1.163483
  2.108000 -0.285309 -1.734523 -1.163483
  2.108000 -0.104765 -1.754707 -1.163483
  2.108000  0.076899 -1.756149 -1.163483
  2.108000  0.257741 -1.738833 -1.163483
  2.108000  0.435830 -1.702946 -1.163483
  2.108000  0.609265 -1.648869 -1.163483
  2.108000  0.776192 -1.577180 -1.163483
  2.108000  0.934828 -1.488647 -1.163483
  2.108000  1.083479 -1.384213 -1.163483
  2.108000  1.220558 -1.264994 -1.163483
  2.108000  1.344600 -1.132264 -1.163483
  2.108000  1.454281 -0.987441 -1.163483
  2.108000  1.548428 -0.832070 -1.163483
  2.108000  1.626037 -0.667813 -1.163483
  2.108000  1.686279 -0.496422 -1.163483
  2.108000  1.728509 -0.319729 -1.163483
  2.108000  1.752278 -0.139621 -1.163483
  2.108000  1.641118  0.181383 -1.310532
  2.108000  1.611260  0.360571 -1.310532
  2.108000  1.561897  0.535394 -1.310532
  2.108000  1.493628  0.703736 -1.310532
  2.108000  1.407279  0.863560 -1.310532
  2.108000  1.303895  1.012931 -1.310532
  2.108000  1.184727  1.150040 -1.310532
  2.108000  1.051219  1.273228 -1.310532
  2.108000  0.904985  1.381004 -1.310532
  2.108000  0.747798  1.472063 -1.310532
  2.108000  0.581558  1.545303 -1.310532
  2.108000  0.408278  1.599837 -1.310532
  2.108000  0.230057  1.635006 -1.310532
  2.108000  0.049050  1.650383 -1.310532
  2.108000 -0.132550  1.645782 -1.310532
  2.108000 -0.312546  1.621260 -1.310532
  2.108000 -0.488758  1.577113 -1.310532
  2.108000 -0.659054  1.513875 -1.310532
  2.108000 -0.821372  1.432312 -1.310532
  2.108000 -0.973748  1.333411 -1.310532
  2.108000 -1.114337  1.218369 -1.310532
  2.108000 -1.241437  1.088579 -1.310532
  2.108000 -1.353509  0.945612 -1.310532
  2.108000 -1.449198  0.791199 -1.310532
  2.108000 -1.527344  0.627208 -1.310532
  2.108000 -1.587002  0.455625 -1.310532
  2.108000 -1.627450  0.278527 -1.310532
  2.108000 -1.648197  0.098057 -1.310532
  2.108000 -1.648994 -0.083600 -1.310532
  2.108000 -1.629830 -0.264244 -1.310532
  2.108000 -1.590937 -0.441691 -1.310532
  2.108000 -1.532786 -0.613790 -1.310532
  2.108000 -1.456081 -0.778460 -1.310532
  2.108000 -1.361750 -0.933706 -1.310532
  2.108000 -1.250935 -1.077651 -1.310532
  2.108000 -1.124978 -1.208550 -1.310532
  2.108000 -0.985404 -1.324820 -1.310532
  2.108000 -0.833901 -1.425054 -1.310532
  2.108000 -0.672305 -1.508037 -1.310532
  2.108000 -0.502569 -1.572766 -1.310532
  2.108000 -0.326751 -1.618457 -1.310532
  2.108000 -0.146977 -1.644557 -1.310532
  2.108000  0.034575 -1.650750 -1.310532
  2.108000  0.215710 -1.636960 -1.310532
  2.108000  0.394233 -1.603356 -1.310532
  2.108000  0.567984 -1.550343 -1.310532
  2.108000  0.734860 -1.478564 -1.310532
  2.108000  0.892840 -1.388887 -1.310532
  2.108000  1.040013 -1.282397 -1.310532
  2.108000  1.174596 -1.160385 -1.310532
  2.108000  1.294962 -1.024326 -1.310532
  2.108000  1.399652 -0.875868 -1.310532
  2.108000  1.487399 -0.716808 -1.310532
  2.108000  1.557142 -0.549071 -1.310532
  2.108000  1.608036 -0.374687 -1.310532
  2.108000  1.639465 -0.195768 -1.310532
  2.108000  1.651048 -0.014479 -1.310532
  2.108000  1.521358  0.181324 -1.447845
  2.108000  1.489206  0.360100 -1.447845
  2.108000  1.436123  0.533814 -1.447845
  2.108000  1.362854  0.700025 -1.447845
  2.108000  1.270430  0.856397 -1.447845
  2.108000  1.160149  1.000731 -1.447845
  2.108000  1.033561  1.131000 -1.447845
  2.108000  0.892445  1.245371 -1.447845
  2.108000  0.738786  1.342238 -1.447845
  2.108000  0.574742  1.420239 -1.447845
  2.108000  0.402620  1.478277 -1.447845
  2.108000  0.224839  1.515538 -1.447845
  2.108000  0.043898  1.531496 -1.447845
  2.108000 -0.137660  1.525928 -1.447845
  2.108000 -0.317284  1.498912 -1.447845
  2.108000 -0.492447  1.450828 -1.447845
  2.108000 -0.660689  1.382352 -1.447845
  2.108000 -0.819645  1.294446 -1.447845
  2.108000 -0.967080  1.188345 -1.447845
  2.108000 -1.100922  1.065541 -1.447845
  2.108000 -1.219290  0.927761 -1.447845
  2.108000 -1.320520  0.776940 -1.447845
  2.108000 -1.403189  0.615198 -1.447845
  2.108000 -1.466135  0.444810 -1.447845
  2.108000 -1.508474  0.268170 -1.447845
  2.108000 -1.529610  0.087760 -1.447845
  2.108000 -1.529246 -0.093883 -1.447845
  2.108000 -1.507388 -0.274207 -1.447845
  2.108000 -1.464342 -0.450677 -1.447845
  2.108000 -1.400714 -0.620811 -1.447845
  2.108000 -1.317398 -0.782221 -1.447845
  2.108000 -1.215566 -0.932635 -1.447845
  2.108000 -1.096647 -1.069940 -1.447845
  2.108000 -0.962315 -1.192207 -1.447845
  2.108000 -0.814456 -1.297717 -1.447845
  2.108000 -0.655150 -1.384986 -1.447845
  2.108000 -0.486635 -1.452788 -1.447845
  2.108000 -0.311280 -1.500171 -1.447845
  2.108000 -0.131550 -1.526467 -1.447845
  2.108000  0.050030 -1.531308 -1.447845
  2.108000  0.230905 -1.514625 -1.447845
  2.108000  0.408536 -1.476654 -1.447845
  2.108000  0.580424 -1.417927 -1.447845
  2.108000  0.744153 -1.339270 -1.447845
  2.108000  0.897424 -1.241788 -1.447845
  2.108000  1.038081 -1.126852 -1.447845
  2.108000  1.164146 -0.996078 -1.447845
  2.108000  1.273849 -0.851303 -1.447845
  2.108000  1.365646 -0.694563 -1.447845
  2.108000  1.438249 -0.528060 -1.447845
  2.108000  1.490636 -0.354134 -1.447845
  2.108000  1.522071 -0.175232 -1.447845
  2.108000  1.389990  0.181241 -1.574402
  2.108000  1.354889  0.359440 -1.574402
  2.108000  1.297042  0.531605 -1.574402
  2.108000  1.217420  0.694844 -1.574402
  2.108000  1.117361  0.846419 -1.574402
  2.108000  0.998543  0.983785 -1.574402
  2.108000  0.862962  1.104635 -1.574402
  2.108000  0.712894  1.206940 -1.574402
  2.108000  0.550857  1.288983 -1.574402
  2.108000  0.379573  1.349387 -1.574402
  2.108000  0.201917  1.387138 -1.574402
  2.108000  0.020871  1.401601 -1.574402
  2.108000 -0.160526  1.392535 -1.574402
  2.108000 -0.339227  1.360090 -1.574402
  2.108000 -0.512234  1.304813 -1.574402
  2.108000 -0.676641  1.227631 -1.574402
  2.108000 -0.829689  1.129839 -1.574402
  2.108000 -0.968808  1.013080 -1.574402
  2.108000 -1.091663  0.879313 -1.574402
  2.108000 -1.196192  0.730785 -1.574402
  2.108000 -1.280638  0.569988 -1.574402
  2.108000 -1.343586  0.399622 -1.574402
  2.108000 -1.383977  0.222548 -1.574402
  2.108000 -1.401135  0.041737 -1.574402
  2.108000 -1.394770 -0.139774 -1.574402
  2.108000 -1.364990 -0.318939 -1.574402
  2.108000 -1.312295 -0.492750 -1.574402
  2.108000 -1.237569 -0.658288 -1.574402
  2.108000 -1.142067 -0.812775 -1.574402
  2.108000 -1.027393 -0.953617 -1.574402
  2.108000 -0.895470 -1.078450 -1.574402
  2.108000 -0.748514 -1.185178 -1.574402
  2.108000 -0.588993 -1.272010 -1.574402
  2.108000 -0.419583 -1.337487 -1.574402
  2.108000 -0.243129 -1.380510 -1.574402
  2.108000 -0.062594 -1.400358 -1.574402
  2.108000  0.118992 -1.396697 -1.574402
  2.108000  0.298580 -1.369588 -1.574402
  2.108000  0.473156 -1.319486 -1.574402
  2.108000  0.639789 -1.247234 -1.574402
  2.108000  0.795681 -1.154042 -1.574402
  2.108000  0.938215 -1.041477 -1.574402
  2.108000  1.064998 -0.911428 -1.574402
  2.108000  1.173902 -0.766077 -1.574402
  2.108000  1.263099 -0.607866 -1.574402
  2.108000  1.331092 -0.439450 -1.574402
  2.108000  1.376737 -0.263657 -1.574402
  2.108000  1.399271 -0.083437 -1.574402
  2.108000  1.247898  0.181122 -1.689263
  2.108000  1.208942  0.358487 -1.689263
  2.108000  1.144915  0.528417 -1.689263
  2.108000  1.057143  0.687389 -1.689263
  2.108000  0.947447  0.832106 -1.689263
  2.108000  0.818102  0.959565 -1.689263
  2.108000  0.671790  1.067124 -1.689263
  2.108000  0.511546  1.152552 -1.689263
  2.108000  0.340694  1.214077 -1.689263
  2.108000  0.162775  1.250424 -1.689263
  2.108000 -0.018519  1.260838 -1.689263
  2.108000 -0.199429  1.245104 -1.689263
  2.108000 -0.376203  1.203547 -1.689263
  2.108000 -0.545175  1.137031 -1.689263
  2.108000 -0.702840  1.046934 -1.689263
  2.108000 -0.845930  0.935124 -1.689263
  2.108000 -0.971476  0.803921 -1.689263
  2.108000 -1.076874  0.656046 -1.689263
  2.108000 -1.159940  0.494565 -1.689263
  2.108000 -1.218949  0.322827 -1.689263
  2.108000 -1.252679  0.144394 -1.689263
  2.108000 -1.260430 -0.037033 -1.689263
  2.108000 -1.242041 -0.217693 -1.689263
  2.108000 -1.197893 -0.393837 -1.689263
  2.108000 -1.128902 -0.561814 -1.689263
  2.108000 -1.036499 -0.718140 -1.689263
  2.108000 -0.922600 -0.859572 -1.689263
  2.108000 -0.789567 -0.983178 -1.689263
  2.108000 -0.640160 -1.086393 -1.689263
  2.108000 -0.477476 -1.167078 -1.689263
  2.108000 -0.304891 -1.223559 -1.689263
  2.108000 -0.125982 -1.254665 -1.689263
  2.108000  0.055540 -1.259750 -1.689263
  2.108000  0.235910 -1.238710 -1.689263
  2.108000  0.411387 -1.191980 -1.689263
  2.108000  0.578333 -1.120529 -1.689263
  2.108000  0.733284 -1.025840 -1.689263
  2.108000  0.873029 -0.909877 -1.689263
  2.108000  0.994667 -0.775043 -1.689263
  2.108000  1.095677 -0.624136 -1.689263
  2.108000  1.173964 -0.460286 -1.689263
  2.108000  1.227905 -0.286889 -1.689263
  2.108000  1.256379 -0.107542 -1.689263
  2.108000  1.095988  0.180940 -1.791573
  2.108000  1.051877  0.357048 -1.791573
  2.108000  0.979670  0.523618 -1.791573
  2.108000  0.881294  0.676202 -1.791573
  2.108000  0.759379  0.810723 -1.791573
  2.108000  0.617179  0.923590 -1.791573
  2.108000  0.458495  1.011786 -1.791573
  2.108000  0.287563  1.072957 -1.791573
  2.108000  0.108950  1.105467 -1.791573
  2.108000 -0.072573  1.108450 -1.791573
  2.108000 -0.252158  1.081825 -1.791573
  2.108000 -0.425007  1.026303 -1.791573
  2.108000 -0.586504  0.943367 -1.791573
  2.108000 -0.732334  0.835234 -1.791573
  2.108000 -0.858603  0.704790 -1.791573
  2.108000 -0.961938  0.555520 -1.791573
  2.108000 -1.039579  0.391412 -1.791573
  2.108000 -1.089452  0.216849 -1.791573
  2.108000 -1.110224  0.036494 -1.791573
  2.108000 -1.101340 -0.144836 -1.791573
  2.108000 -1.063039 -0.322298 -1.791573
  2.108000 -0.996343 -0.491150 -1.791573
  2.108000 -0.903034 -0.646883 -1.791573
  2.108000 -0.785603 -0.785338 -1.791573
  2.108000 -0.647189 -0.902815 -1.791573
  2.108000 -0.491487 -0.996177 -1.791573
  2.108000 -0.322658 -1.062930 -1.791573
  2.108000 -0.145209 -1.101291 -1.791573
  2.108000  0.036118 -1.110236 -1.791573
  2.108000  0.216480 -1.089525 -1.791573
  2.108000  0.391060 -1.039712 -1.791573
  2.108000  0.555195 -0.962126 -1.791573
  2.108000  0.704499 -0.858842 -1.791573
  2.108000  0.834986 -0.732617 -1.791573
  2.108000  0.943169 -0.586823 -1.791573
  2.108000  1.026159 -0.425354 -1.791573
  2.108000  1.081739 -0.252524 -1.791573
  2.108000  1.108425 -0.072949 -1.791573
  2.108000  0.935131  0.180649 -1.880574
  2.108000  0.883891  0.354740 -1.880574
  2.108000  0.800562  0.515951 -1.880574
  2.108000  0.688167  0.658431 -1.880574
  2.108000  0.550788  0.777005 -1.880574
  2.108000  0.393412  0.867370 -1.880574
  2.108000  0.221753  0.926245 -1.880574
  2.108000  0.042043  0.951492 -1.880574
  2.108000 -0.139193  0.942194 -1.880574
  2.108000 -0.315376  0.898689 -1.880574
  2.108000 -0.480109  0.822557 -1.880574
  2.108000 -0.627411  0.716561 -1.880574
  2.108000 -0.751934  0.584550 -1.880574
  2.108000 -0.849158  0.431317 -1.880574
  2.108000 -0.915553  0.262424 -1.880574
  2.108000 -0.948708  0.084004 -1.880574
  2.108000 -0.947420 -0.097466 -1.880574
  2.108000 -0.911735 -0.275397 -1.880574
  2.108000 -0.842949 -0.443330 -1.880574
  2.108000 -0.743559 -0.595168 -1.880574
  2.108000 -0.617173 -0.725397 -1.880574
  2.108000 -0.468381 -0.829291 -1.880574
  2.108000 -0.302584 -0.903077 -1.880574
  2.108000 -0.125801 -0.944075 -1.880574
  2.108000  0.055549 -0.950799 -1.880574
  2.108000  0.234882 -0.923003 -1.880574
  2.108000  0.405687 -0.861697 -1.880574
  2.108000  0.561764 -0.769107 -1.880574
  2.108000  0.697446 -0.648593 -1.880574
  2.108000  0.807807 -0.504532 -1.880574
  2.108000  0.888839 -0.342154 -1.880574
  2.108000  0.937602 -0.167353 -1.880574
  2.108000  0.766046  0.180139 -1.955604
  2.108000  0.704470  0.350711 -1.955604
  2.108000  0.605484  0.502659 -1.955604
  2.108000  0.474343  0.627914 -1.955604
  2.108000  0.318012  0.719823 -1.955604
  2.108000  0.144794  0.773506 -1.955604
  2.108000 -0.036114  0.786112 -1.955604
  2.108000 -0.215104  0.756972 -1.955604
  2.108000 -0.382671  0.687633 -1.955604
  2.108000 -0.529916  0.581778 -1.955604
  2.108000 -0.649020  0.445027 -1.955604
  2.108000 -0.733658  0.284643 -1.955604
  2.108000 -0.779336  0.109144 -1.955604
  2.108000 -0.783627 -0.072152 -1.955604
  2.108000 -0.746303 -0.249616 -1.955604
  2.108000 -0.669347 -0.413824 -1.955604
  2.108000 -0.556846 -0.556057 -1.955604
  2.108000 -0.414774 -0.668760 -1.955604
  2.108000 -0.250675 -0.745948 -1.955604
  2.108000 -0.073264 -0.783523 -1.955604
  2.108000  0.108038 -0.779490 -1.955604
  2.108000  0.283602 -0.734062 -1.955604
  2.108000  0.444106 -0.649651 -1.955604
  2.108000  0.581025 -0.530741 -1.955604
  2.108000  0.687090 -0.383646 -1.955604
  2.108000  0.756666 -0.216178 -1.955604
  2.108000  0.786060 -0.037229 -1.955604
  2.108000  0.588981  0.179121 -2.016105
  2.108000  0.511381  0.342743 -2.016105
  2.108000  0.389530  0.476707 -2.016105
  2.108000  0.233973  0.569421 -2.016105
  2.108000  0.058170  0.612862 -2.016105
  2.108000 -0.122667  0.603271 -2.016105
  2.108000 -0.292889  0.541479 -2.016105
  2.108000 -0.437767  0.432831 -2.016105
  2.108000 -0.544765  0.286731 -2.016105
  2.108000 -0.604623  0.115819 -2.016105
  2.108000 -0.612163 -0.065115 -2.016105
  2.108000 -0.566731 -0.240414 -2.016105
  2.108000 -0.472260 -0.394910 -2.016105
  2.108000 -0.336923 -0.515234 -2.016105
  2.108000 -0.172432 -0.590974 -2.016105
  2.108000  0.006980 -0.615577 -2.016105
  2.108000  0.185788 -0.586912 -2.016105
  2.108000  0.348519 -0.507462 -2.016105
  2.108000  0.481093 -0.384100 -2.016105
  2.108000  0.572037 -0.227501 -2.016105
  2.108000  0.613482 -0.051217 -2.016105
  2.108000  0.402687  0.176619 -2.061629
  2.108000  0.297834  0.323491 -2.061629
  2.108000  0.142818  0.415878 -2.061629
  2.108000 -0.036253  0.438220 -2.061629
  2.108000 -0.209218  0.386755 -2.061629
  2.108000 -0.346945  0.270150 -2.061629
  2.108000 -0.426237  0.108044 -2.061629
  2.108000 -0.433740 -0.072259 -2.061629
  2.108000 -0.368189 -0.240392 -2.061629
  2.108000 -0.240626 -0.368036 -2.061629
  2.108000 -0.072535 -0.433694 -2.061629
  2.108000  0.107773 -0.426306 -2.061629
  2.108000  0.269929 -0.347116 -2.061629
  2.108000  0.386622 -0.209463 -2.061629
  2.108000  0.438197 -0.036531 -2.061629
  2.108000  0.199691  0.167365 -2.091836
  2.108000  0.045540  0.256542 -2.091836
  2.108000 -0.129887  0.225870 -2.091836
  2.108000 -0.244634  0.089677 -2.091836
  2.108000 -0.245095 -0.088410 -2.091836
  2.108000 -0.131054 -0.225194 -2.091836
  2.108000  0.044211 -0.256774 -2.091836
  2.108000  0.198822 -0.168396 -2.091836
  2.108000  0.260549 -0.001348 -2.091836
  2.108000 -0.052196  0.059901 -2.106502
  2.108000 -0.010872 -0.078704 -2.106502
  2.024000  0.000000  0.000000  2.024000
  2.024000  0.097768  0.152715  2.015861
  2.024000 -0.075902  0.164679  2.015861
  2.024000 -0.179616  0.024866  2.015861
  2.024000 -0.117786 -0.137865  2.015861
  2.024000  0.052602 -0.173532  2.015861
  2.024000  0.174510 -0.049262  2.015861
  2.024000  0.316516  0.174022  1.991509
  2.024000  0.193518  0.304986  1.991509
  2.024000  0.022639  0.360490  1.991509
  2.024000 -0.153841  0.326801  1.991509
  2.024000 -0.292258  0.212253  1.991509
  2.024000 -0.358363  0.045189  1.991509
  2.024000 -0.335801 -0.133056  1.991509
  2.024000 -0.230154 -0.278380  1.991509
  2.024000 -0.067561 -0.354826  1.991509
  2.024000  0.111747 -0.343480  1.991509
  2.024000  0.263407 -0.247149  1.991509
  2.024000  0.349894 -0.089668  1.991509
  2.024000  0.507826  0.178148  1.951141
  2.024000  0.420223  0.336208  1.951141
  2.024000  0.285238  0.456358  1.951141
  2.024000  0.118090  0.525051  1.951141
  2.024000 -0.062374  0.534540  1.951141
  2.024000 -0.235804  0.483756  1.951141
  2.024000 -0.382646  0.378425  1.951141
  2.024000 -0.486342  0.230424  1.951141
  2.024000 -0.535199  0.056440  1.951141
  2.024000 -0.523708 -0.123907  1.951141
  2.024000 -0.453166 -0.290283  1.951141
  2.024000 -0.331526 -0.423927  1.951141
  2.024000 -0.172504 -0.509770  1.951141
  2.024000  0.005970 -0.538134  1.951141
  2.024000  0.183770 -0.505818  1.951141
  2.024000  0.340848 -0.416468  1.951141
  2.024000  0.459494 -0.280158  1.951141
  2.024000  0.526328 -0.112258  1.951141
  2.024000  0.687739  0.179605  1.895081
  2.024000  0.620040  0.347553  1.895081
  2.024000  0.512101  0.492946  1.895081
  2.024000  0.370927  0.606347  1.895081
  2.024000  0.205681  0.680396  1.895081
  2.024000  0.027085  0.710288  1.895081
  2.024000 -0.153268  0.694084  1.895081
  2.024000 -0.323674  0.632834  1.895081
  2.024000 -0.473074  0.530513  1.895081
  2.024000 -0.591772  0.393763  1.895081
  2.024000 -0.672064  0.231458  1.895081
  2.024000 -0.708741  0.054131  1.895081
  2.024000 -0.699420 -0.126708  1.895081
  2.024000 -0.644708 -0.299325  1.895081
  2.024000 -0.548155 -0.452515  1.895081
  2.024000 -0.416027 -0.576338  1.895081
  2.024000 -0.256899 -0.662757  1.895081
  2.024000 -0.081099 -0.706163  1.895081
  2.024000  0.099964 -0.703740  1.895081
  2.024000  0.274540 -0.655645  1.895081
  2.024000  0.431299 -0.565000  1.895081
  2.024000  0.560066 -0.437686  1.895081
  2.024000  0.652486 -0.281967  1.895081
  2.024000  0.702560 -0.107949  1.895081
  2.024000  0.859012  0.180281  1.823780
  2.024000  0.803668  0.352874  1.823780
  2.024000  0.714055  0.510420  1.823780
  2.024000  0.593993  0.646201  1.823780
  2.024000  0.448602  0.754426  1.823780
  2.024000  0.284082  0.830482  1.823780
  2.024000  0.107448  0.871124  1.823780
  2.024000 -0.073767  0.874621  1.823780
  2.024000 -0.251837  0.840822  1.823780
  2.024000 -0.419169  0.771168  1.823780
  2.024000 -0.568626  0.668631  1.823780
  2.024000 -0.693836  0.537582  1.823780
  2.024000 -0.789459  0.383610  1.823780
  2.024000 -0.851419  0.213280  1.823780
  2.024000 -0.877073  0.033856  1.823780
  2.024000 -0.865327 -0.147013  1.823780
  2.024000 -0.816681 -0.321612  1.823780
  2.024000 -0.733211 -0.482498  1.823780
  2.024000 -0.618476 -0.622808  1.823780
  2.024000 -0.477368 -0.736561  1.823780
  2.024000 -0.315904 -0.818906  1.823780
  2.024000 -0.140969 -0.866332  1.823780
  2.024000  0.039977 -0.876815  1.823780
  2.024000  0.219218 -0.849910  1.823780
  2.024000  0.389111 -0.786763  1.823780
  2.024000  0.542412 -0.690066  1.823780
  2.024000  0.672584 -0.563945  1.823780
  2.024000  0.774075 -0.413776  1.823780
  2.024000  0.842559 -0.245962  1.823780
  2.024000  0.875114 -0.067661  1.823780
  2.024000  1.021742  0.180648  1.737811
  2.024000  0.974685  0.355777  1.737811
  2.024000  0.897858  0.520040  1.737811
  2.024000  0.793604  0.668417  1.737811
  2.024000  0.665110  0.796378  1.737811
  2.024000  0.516300  0.900013  1.737811
  2.024000  0.351720  0.976157  1.737811
  2.024000  0.176396  1.022484  1.737811
  2.024000 -0.004316  1.037579  1.737811
  2.024000 -0.184896  1.020981  1.737811
  2.024000 -0.359829  0.973197  1.737811
  2.024000 -0.523770  0.895686  1.737811
  2.024000 -0.671713  0.790817  1.737811
  2.024000 -0.799138  0.661792  1.737811
  2.024000 -0.902153  0.512552  1.737811
  2.024000 -0.977612  0.347656  1.737811
  2.024000 -1.023209  0.172141  1.737811
  2.024000 -1.037552 -0.008633  1.737811
  2.024000 -1.020203 -0.189142  1.737811
  2.024000 -0.971692 -0.363874  1.737811
  2.024000 -0.893500 -0.527492  1.737811
  2.024000 -0.788016 -0.674997  1.737811
  2.024000 -0.658462 -0.801884  1.737811
  2.024000 -0.508794 -0.904277  1.737811
  2.024000 -0.343586 -0.979050  1.737811
  2.024000 -0.167883 -1.023916  1.737811
  2.024000  0.012949 -1.037507  1.737811
  2.024000  0.193384 -1.019408  1.737811
  2.024000  0.367913 -0.970170  1.737811
  2.024000  0.531204 -0.891298  1.737811
  2.024000  0.678269 -0.785201  1.737811
  2.024000  0.804616 -0.655120  1.737811
  2.024000  0.906386 -0.505028  1.737811
  2.024000  0.980470 -0.339510  1.737811
  2.024000  1.024606 -0.163622  1.737811
  2.024000  1.175270  0.180868  1.637865
  2.024000  1.134084  0.357527  1.637865
  2.024000  1.066507  0.525866  1.637865
  2.024000  0.974111  0.681968  1.637865
  2.024000  0.859047  0.822199  1.637865
  2.024000  0.723991  0.943297  1.637865
  2.024000  0.572087  1.042444  1.637865
  2.024000  0.406871  1.117331  1.637865
  2.024000  0.232186  1.166217  1.637865
  2.024000  0.052097  1.187964  1.637865
  2.024000 -0.129203  1.182065  1.637865
  2.024000 -0.307497  1.148659  1.637865
  2.024000 -0.478635  1.088522  1.637865
  2.024000 -0.638635  1.003054  1.637865
  2.024000 -0.783773  0.894244  1.637865
  2.024000 -0.910672  0.764624  1.637865
  2.024000 -1.016378  0.617210  1.637865
  2.024000 -1.098432  0.455433  1.637865
  2.024000 -1.154925  0.283057  1.637865
  2.024000 -1.184541  0.104095  1.637865
  2.024000 -1.186591 -0.077290  1.637865
  2.024000 -1.161028 -0.256877  1.637865
  2.024000 -1.108447 -0.430485  1.637865
  2.024000 -1.030071 -0.594076  1.637865
  2.024000 -0.927724 -0.743842  1.637865
  2.024000 -0.803788 -0.876298  1.637865
  2.024000 -0.661147 -0.988361  1.637865
  2.024000 -0.503120 -1.077424  1.637865
  2.024000 -0.333385 -1.141414  1.637865
  2.024000 -0.155892 -1.178843  1.637865
  2.024000  0.025229 -1.188838  1.637865
  2.024000  0.205763 -1.171168  1.637865
  2.024000  0.381508 -1.126243  1.637865
  2.024000  0.548376 -1.055110  1.637865
  2.024000  0.702482 -0.959422  1.637865
  2.024000  0.840240 -0.841409  1.637865
  2.024000  0.958446 -0.703814  1.637865
  2.024000  1.054347 -0.549841  1.637865
  2.024000  1.125712 -0.383073  1.637865
  2.024000  1.170881 -0.207390  1.637865
  2.024000  1.188802 -0.026881  1.637865
  2.024000  1.318695  0.181010  1.524748
  2.024000  1.281829  0.358658  1.524748
  2.024000  1.221147  0.529641  1.524748
  2.024000  1.137778  0.690784  1.524748
  2.024000  1.033269  0.839093  1.524748
  2.024000  0.909562  0.971812  1.524748
  2.024000  0.768956  1.086475  1.524748
  2.024000  0.614063  1.180952  1.524748
  2.024000  0.447762  1.253487  1.524748
  2.024000  0.273141  1.302734  1.524748
  2.024000  0.093445  1.327776  1.524748
  2.024000 -0.087987  1.328149  1.524748
  2.024000 -0.267784  1.303845  1.524748
  2.024000 -0.442605  1.255317  1.524748
  2.024000 -0.609204  1.183466  1.524748
  2.024000 -0.764483  1.089626  1.524748
  2.024000 -0.905559  0.975542  1.524748
  2.024000 -1.029811  0.843333  1.524748
  2.024000 -1.134928  0.695455  1.524748
  2.024000 -1.218960  0.534656  1.524748
  2.024000 -1.280344  0.363924  1.524748
  2.024000 -1.317940  0.186429  1.524748
  2.024000 -1.331049  0.005471  1.524748
  2.024000 -1.319428 -0.175588  1.524748
  2.024000 -1.283292 -0.353385  1.524748
  2.024000 -1.223314 -0.524617  1.524748
  2.024000 -1.140607 -0.686101  1.524748
  2.024000 -1.036709 -0.834838  1.524748
  2.024000 -0.913549 -0.968065  1.524748
  2.024000 -0.773415 -1.083305  1.524748
  2.024000 -0.618912 -1.178418  1.524748
  2.024000 -0.452910 -1.251636  1.524748
  2.024000 -0.278494 -1.301600  1.524748
  2.024000 -0.098903 -1.327380  1.524748
  2.024000  0.082526 -1.328499  1.524748
  2.024000  0.262422 -1.304935  1.524748
  2.024000  0.437441 -1.257126  1.524748
  2.024000  0.604334 -1.185960  1.524748
  2.024000  0.759998 -1.092760  1.524748
  2.024000  0.901542 -0.979256  1.524748
  2.024000  1.026335 -0.847559  1.524748
  2.024000  1.132060 -0.700115  1.524748
  2.024000  1.216752 -0.539662  1.524748
  2.024000  1.278837 -0.369183  1.524748
  2.024000  1.317162 -0.191845  1.524748
  2.024000  1.331015 -0.010942  1.524748
  2.024000  1.451051  0.181107  1.399367
  2.024000  1.417449  0.359425  1.399367
  2.024000  1.362021  0.532208  1.399367
  2.024000  1.285621  0.696797  1.399367
  2.024000  1.189425  0.850656  1.399367
  2.024000  1.074914  0.991417  1.399367
  2.024000  0.943851  1.116912  1.399367
  2.024000  0.798255  1.225209  1.399367
  2.024000  0.640368  1.314639  1.399367
  2.024000  0.472620  1.383827  1.399367
  2.024000  0.297594  1.431707  1.399367
  2.024000  0.117986  1.457541  1.399367
  2.024000 -0.063438  1.460932  1.399367
  2.024000 -0.243886  1.441828  1.399367
  2.024000 -0.420578  1.400522  1.399367
  2.024000 -0.590795  1.337650  1.399367
  2.024000 -0.751914  1.254182  1.399367
  2.024000 -0.901455  1.151402  1.399367
  2.024000 -1.037116  1.030892  1.399367
  2.024000 -1.156807  0.894508  1.399367
  2.024000 -1.258685  0.744351  1.399367
  2.024000 -1.341182  0.582733  1.399367
  2.024000 -1.403028  0.412141  1.399367
  2.024000 -1.443269  0.235203  1.399367
  2.024000 -1.461287  0.054644  1.399367
  2.024000 -1.456805 -0.126757  1.399367
  2.024000 -1.429890 -0.306206  1.399367
  2.024000 -1.380958 -0.480940  1.399367
  2.024000 -1.310761 -0.648269  1.399367
  2.024000 -1.220382 -0.805615  1.399367
  2.024000 -1.111210 -0.950557  1.399367
  2.024000 -0.984929 -1.080862  1.399367
  2.024000 -0.843482 -1.194523  1.399367
  2.024000 -0.689046 -1.289792  1.399367
  2.024000 -0.524000 -1.365200  1.399367
  2.024000 -0.350886 -1.419587  1.399367
  2.024000 -0.172370 -1.452114  1.399367
  2.024000  0.008802 -1.462282  1.399367
  2.024000  0.189838 -1.449934  1.399367
  2.024000  0.367950 -1.415260  1.399367
  2.024000  0.540396 -1.358793  1.399367
  2.024000  0.704522 -1.281404  1.399367
  2.024000  0.857800 -1.184283  1.399367
  2.024000  0.997869 -1.068927  1.399367
  2.024000  1.122573 -0.937112  1.399367
  2.024000  1.229991 -0.790866  1.399367
  2.024000  1.318470 -0.632443  1.399367
  2.024000  1.386647 -0.464282  1.399367
  2.024000  1.433472 -0.288971  1.399367
  2.024000  1.458225 -0.109211  1.399367
  2.024000  1.571388  0.181174  1.262732
  2.024000  1.540295  0.359964  1.262732
  2.024000  1.488929  0.534016  1.262732
  2.024000  1.417966  0.701039  1.262732
  2.024000  1.328339  0.858835  1.262732
  2.024000  1.221229  1.005327  1.262732
  2.024000  1.098045  1.138587  1.262732
  2.024000  0.960408  1.256861  1.262732
  2.024000  0.810130  1.358592  1.262732
  2.024000  0.649190  1.442441  1.262732
  2.024000  0.479704  1.507304  1.262732
  2.024000  0.303905  1.552329  1.262732
  2.024000  0.124106  1.576921  1.262732
  2.024000 -0.057327  1.580758  1.262732
  2.024000 -0.238005  1.563789  1.262732
  2.024000 -0.415550  1.526237  1.262732
  2.024000 -0.587626  1.468597  1.262732
  2.024000 -0.751968  1.391627  1.262732
  2.024000 -0.906412  1.296341  1.262732
  2.024000 -1.048926  1.183992  1.262732
  2.024000 -1.177634  1.056059  1.262732
  2.024000 -1.290842  0.914227  1.262732
  2.024000 -1.387060  0.760361  1.262732
  2.024000 -1.465021  0.596487  1.262732
  2.024000 -1.523699  0.424762  1.262732
  2.024000 -1.562323  0.247447  1.262732
  2.024000 -1.580383  0.066874  1.262732
  2.024000 -1.577642 -0.114578  1.262732
  2.024000 -1.554136 -0.294522  1.262732
  2.024000 -1.510175 -0.470590  1.262732
  2.024000 -1.446336 -0.640464  1.262732
  2.024000 -1.363461 -0.801908  1.262732
  2.024000 -1.262640 -0.952798  1.262732
  2.024000 -1.145200 -1.091147  1.262732
  2.024000 -1.012686 -1.215134  1.262732
  2.024000 -0.866844 -1.323127  1.262732
  2.024000 -0.709592 -1.413705  1.262732
  2.024000 -0.543000 -1.485676  1.262732
  2.024000 -0.369262 -1.538092  1.262732
  2.024000 -0.190663 -1.570264  1.262732
  2.024000 -0.009556 -1.581769  1.262732
  2.024000  0.171678 -1.572453  1.262732
  2.024000  0.350653 -1.542441  1.262732
  2.024000  0.525012 -1.492128  1.262732
  2.024000  0.692461 -1.422175  1.262732
  2.024000  0.850795 -1.333503  1.262732
  2.024000  0.997932 -1.227280  1.262732
  2.024000  1.131933 -1.104903  1.262732
  2.024000  1.251037 -0.967983  1.262732
  2.024000  1.353673 -0.818322  1.262732
  2.024000  1.438493 -0.657891  1.262732
  2.024000  1.504379 -0.488801  1.262732
  2.024000  1.550465 -0.313277  1.262732
  2.024000  1.576143 -0.133629  1.262732
  2.024000  1.678811  0.181223  1.115942
  2.024000  1.649665  0.360353  1.115942
  2.024000  1.601462  0.535320  1.115942
  2.024000  1.534760  0.704103  1.115942
  2.024000  1.450328  0.864753  1.115942
  2.024000  1.349143  1.015413  1.115942
  2.024000  1.232372  1.154343  1.115942
  2.024000  1.101366  1.279938  1.115942
  2.024000  0.957636  1.390749  1.115942
  2.024000  0.802845  1.485493  1.115942
  2.024000  0.638779  1.563077  1.115942
  2.024000  0.467334  1.622605  1.115942
  2.024000  0.290490  1.663389  1.115942
  2.024000  0.110291  1.684958  1.115942
  2.024000 -0.071182  1.687063  1.115942
  2.024000 -0.251833  1.669679  1.115942
  2.024000 -0.429575  1.633008  1.115942
  2.024000 -0.602354  1.577472  1.115942
  2.024000 -0.768176  1.503714  1.115942
  2.024000 -0.925123  1.412585  1.115942
  2.024000 -1.071384  1.305138  1.115942
  2.024000 -1.205268  1.182615  1.115942
  2.024000 -1.325229  1.046430  1.115942
  2.024000 -1.429882  0.898158  1.115942
  2.024000 -1.518017  0.739510  1.115942
  2.024000 -1.588616  0.572319  1.115942
  2.024000 -1.640864  0.398517  1.115942
  2.024000 -1.674156  0.220111  1.115942
  2.024000 -1.688110  0.039163  1.115942
  2.024000 -1.682563 -0.142237  1.115942
  2.024000 -1.657579 -0.321995  1.115942
  2.024000 -1.613447 -0.498033  1.115942
  2.024000 -1.550678 -0.668317  1.115942
  2.024000 -1.469995 -0.830882  1.115942
  2.024000 -1.372331 -0.983848  1.115942
  2.024000 -1.258814 -1.125450  1.115942
  2.024000 -1.130755 -1.254050  1.115942
  2.024000 -0.989635 -1.368164  1.115942
  2.024000 -0.837082 -1.466473  1.115942
  2.024000 -0.674860 -1.547841  1.115942
  2.024000 -0.504842 -1.611330  1.115942
  2.024000 -0.328991 -1.656205  1.115942
  2.024000 -0.149341 -1.681947  1.115942
  2.024000  0.032034 -1.688260  1.115942
  2.024000  0.213040 -1.675071  1.115942
  2.024000  0.391585 -1.642532  1.115942
  2.024000  0.565606 -1.591018  1.115942
  2.024000  0.733093 -1.521126  1.115942
  2.024000  0.892112 -1.433662  1.115942
  2.024000  1.040825 -1.329636  1.115942
  2.024000  1.177515 -1.210251  1.115942
  2.024000  1.300603 -1.076885  1.115942
  2.024000  1.408666 -0.931080  1.115942
  2.024000  1.500457 -0.774518  1.115942
  2.024000  1.574914 -0.609010  1.115942
  2.024000  1.631179 -0.436467  1.115942
  2.024000  1.668601 -0.258881  1.115942
  2.024000  1.686748 -0.078305  1.115942
  2.024000  1.772507  0.181259  0.960176
  2.024000  1.744872  0.360637  0.960176
  2.024000  1.699132  0.536273  0.960176
  2.024000  1.635761  0.706345  0.960176
  2.024000  1.555418  0.869087  0.960176
  2.024000  1.458935  1.022812  0.960176
  2.024000  1.347315  1.165924  0.960176
  2.024000  1.221715  1.296939  0.960176
  2.024000  1.083438  1.414496  0.960176
  2.024000  0.933920  1.517377  0.960176
  2.024000  0.774711  1.604513  0.960176
  2.024000  0.607463  1.675000  0.960176
  2.024000  0.433913  1.728108  0.960176
  2.024000  0.255860  1.763285  0.960176
  2.024000  0.075152  1.780165  0.960176
  2.024000 -0.106335  1.778575  0.960176
  2.024000 -0.286719  1.758530  0.960176
  2.024000 -0.464128  1.720239  0.960176
  2.024000 -0.636721  1.664098  0.960176
  2.024000 -0.802708  1.590691  0.960176
  2.024000 -0.960365  1.500778  0.960176
  2.024000 -1.108058  1.395293  0.960176
  2.024000 -1.244254  1.275331  0.960176
  2.024000 -1.367539  1.142136  0.960176
  2.024000 -1.476635  0.997090  0.960176
  2.024000 -1.570408  0.841698  0.960176
  2.024000 -1.647887  0.677572  0.960176
  2.024000 -1.708268  0.506416  0.960176
  2.024000 -1.750924  0.330006  0.960176
  2.024000 -1.775411  0.150171  0.960176
  2.024000 -1.781478 -0.031222  0.960176
  2.024000 -1.769059 -0.212291  0.960176
  2.024000 -1.738284 -0.391157  0.960176
  2.024000 -1.689474 -0.565965  0.960176
  2.024000 -1.623133 -0.734900  0.960176
  2.024000 -1.539950 -0.896210  0.960176
  2.024000 -1.440789 -1.048220  0.960176
  2.024000 -1.326678 -1.189354  0.960176
  2.024000 -1.198801 -1.318148  0.960176
  2.024000 -1.058485 -1.433264  0.960176
  2.024000 -0.907187 -1.533509  0.960176
  2.024000 -0.746475 -1.617842  0.960176
  2.024000 -0.578019 -1.685388  0.960176
  2.024000 -0.403564 -1.735446  0.960176
  2.024000 -0.224923 -1.767497  0.960176
  2.024000 -0.043946 -1.781209  0.960176
  2.024000  0.137485 -1.776439  0.960176
  2.024000  0.317490 -1.753236  0.960176
  2.024000  0.494201 -1.711842  0.960176
  2.024000  0.665784 -1.652685  0.960176
  2.024000  0.830459 -1.576381  0.960176
  2.024000  0.986517 -1.483719  0.960176
  2.024000  1.132338 -1.375663  0.960176
  2.024000  1.266410 -1.253332  0.960176
  2.024000  1.387343 -1.117997  0.960176
  2.024000  1.493880 -0.971062  0.960176
  2.024000  1.584916 -0.814050  0.960176
  2.024000  1.659508 -0.648592  0.960176
  2.024000  1.716880 -0.476404  0.960176
  2.024000  1.756438 -0.299273  0.960176
  2.024000  1.777770 -0.119037  0.960176
  2.024000  1.851755  0.181285  0.796689
  2.024000  1.825282  0.360845  0.796689
  2.024000  1.781439  0.536971  0.796689
  2.024000  1.720644  0.707987  0.796689
  2.024000  1.643476  0.872266  0.796689
  2.024000  1.550669  1.028245  0.796689
  2.024000  1.443106  1.174439  0.796689
  2.024000  1.321811  1.309458  0.796689
  2.024000  1.187937  1.432016  0.796689
  2.024000  1.042759  1.540946  0.796689
  2.024000  0.887659  1.635214  0.796689
  2.024000  0.724111  1.713921  0.796689
  2.024000  0.553674  1.776319  0.796689
  2.024000  0.377967  1.821813  0.796689
  2.024000  0.198664  1.849972  0.796689
  2.024000  0.017470  1.860526  0.796689
  2.024000 -0.163890  1.853376  0.796689
  2.024000 -0.343691  1.828590  0.796689
  2.024000 -0.520221  1.786402  0.796689
  2.024000 -0.691800  1.727216  0.796689
  2.024000 -0.856796  1.651594  0.796689
  2.024000 -1.013640  1.560255  0.796689
  2.024000 -1.160838  1.454070  0.796689
  2.024000 -1.296989  1.334048  0.796689
  2.024000 -1.420798  1.201330  0.796689
  2.024000 -1.531088  1.057182  0.796689
  2.024000 -1.626807  0.902973  0.796689
  2.024000 -1.707047  0.740172  0.796689
  2.024000 -1.771042  0.570327  0.796689
  2.024000 -1.818184  0.395056  0.796689
  2.024000 -1.848025  0.216025  0.796689
  2.024000 -1.860280  0.034938  0.796689
  2.024000 -1.854833 -0.146481  0.796689
  2.024000 -1.831736 -0.326506  0.796689
  2.024000 -1.791208 -0.503424  0.796689
  2.024000 -1.733636 -0.675552  0.796689
  2.024000 -1.659566 -0.841251  0.796689
  2.024000 -1.569704 -0.998946  0.796689
  2.024000 -1.464905 -1.147134  0.796689
  2.024000 -1.346166 -1.284406  0.796689
  2.024000 -1.214618 -1.409456  0.796689
  2.024000 -1.071511 -1.521094  0.796689
  2.024000 -0.918208 -1.618257  0.796689
  2.024000 -0.756167 -1.700022  0.796689
  2.024000 -0.586932 -1.765609  0.796689
  2.024000 -0.412110 -1.814395  0.796689
  2.024000 -0.233367 -1.845915  0.796689
  2.024000 -0.052404 -1.859870  0.796689
  2.024000  0.129059 -1.856127  0.796689
  2.024000  0.309293 -1.834721  0.796689
  2.024000  0.486584 -1.795856  0.796689
  2.024000  0.659244 -1.739902  0.796689
  2.024000  0.825632 -1.667392  0.796689
  2.024000  0.984163 -1.579014  0.796689
  2.024000  1.133329 -1.475611  0.796689
  2.024000  1.271710 -1.358167  0.796689
  2.024000  1.397990 -1.227798  0.796689
  2.024000  1.510966 -1.085746  0.796689
  2.024000  1.609565 -0.933362  0.796689
  2.024000  1.692847 -0.772096  0.796689
  2.024000  1.760020 -0.603483  0.796689
  2.024000  1.810445 -0.429127  0.796689
  2.024000  1.843643 -0.250689  0.796689
  2.024000  1.859296 -0.069864  0.796689
  2.024000  1.915942  0.181304  0.626794
  2.024000  1.890341  0.360995  0.626794
  2.024000  1.847925  0.537475  0.626794
  2.024000  1.789072  0.709174  0.626794
  2.024000  1.714305  0.874565  0.626794
  2.024000  1.624290  1.032177  0.626794
  2.024000  1.519826  1.180607  0.626794
  2.024000  1.401844  1.318536  0.626794
  2.024000  1.271393  1.444737  0.626794
  2.024000  1.129632  1.558087  0.626794
  2.024000  0.977824  1.657578  0.626794
  2.024000  0.817317  1.742325  0.626794
  2.024000  0.649541  1.811574  0.626794
  2.024000  0.475987  1.864709  0.626794
  2.024000  0.298200  1.901258  0.626794
  2.024000  0.117760  1.920895  0.626794
  2.024000 -0.063728  1.923446  0.626794
  2.024000 -0.244649  1.908888  0.626794
  2.024000 -0.423394  1.877350  0.626794
  2.024000 -0.598372  1.829113  0.626794
  2.024000 -0.768028  1.764607  0.626794
  2.024000 -0.930853  1.684404  0.626794
  2.024000 -1.085397  1.589219  0.626794
  2.024000 -1.230288  1.479898  0.626794
  2.024000 -1.364234  1.357413  0.626794
  2.024000 -1.486046  1.222854  0.626794
  2.024000 -1.594640  1.077418  0.626794
  2.024000 -1.689049  0.922398  0.626794
  2.024000 -1.768435  0.759174  0.626794
  2.024000 -1.832090  0.589197  0.626794
  2.024000 -1.879449  0.413978  0.626794
  2.024000 -1.910090  0.235078  0.626794
  2.024000 -1.923741  0.054086  0.626794
  2.024000 -1.920281 -0.127387  0.626794
  2.024000 -1.899740 -0.307726  0.626794
  2.024000 -1.862300 -0.485328  0.626794
  2.024000 -1.808296 -0.658614  0.626794
  2.024000 -1.738207 -0.826040  0.626794
  2.024000 -1.652656 -0.986120  0.626794
  2.024000 -1.552406 -1.137427  0.626794
  2.024000 -1.438346 -1.278618  0.626794
  2.024000 -1.311493 -1.408435  0.626794
  2.024000 -1.172974 -1.525725  0.626794
  2.024000 -1.024022 -1.629443  0.626794
  2.024000 -0.865961 -1.718667  0.626794
  2.024000 -0.700197 -1.792604  0.626794
  2.024000 -0.528206 -1.850596  0.626794
  2.024000 -0.351514 -1.892127  0.626794
  2.024000 -0.171698 -1.916827  0.626794
  2.024000  0.009647 -1.924477  0.626794
  2.024000  0.190905 -1.915009  0.626794
  2.024000  0.370465 -1.888508  0.626794
  2.024000  0.546730 -1.845208  0.626794
  2.024000  0.718132 -1.785495  0.626794
  2.024000  0.883147 -1.709900  0.626794
  2.024000  1.040305 -1.619095  0.626794
  2.024000  1.188210 -1.513889  0.626794
  2.024000  1.325546 -1.395218  0.626794
  2.024000  1.451092 -1.264135  0.626794
  2.024000  1.563730 -1.121808  0.626794
  2.024000  1.662459 -0.969502  0.626794
  2.024000  1.746400 -0.808574  0.626794
  2.024000  1.814807 -0.640453  0.626794
  2.024000  1.867072 -0.466635  0.626794
  2.024000  1.902729 -0.288666  0.626794
  2.024000  1.921461 -0.108130  0.626794
  2.024000  1.964567  0.181317  0.451858
  2.024000  1.939590  0.361099  0.451858
  2.024000  1.898195  0.537824  0.451858
  2.024000  1.840734  0.709998  0.451858
  2.024000  1.767694  0.876162  0.451858
  2.024000  1.679691  1.034910  0.451858
  2.024000  1.577471  1.184899  0.451858
  2.024000  1.461900  1.324858  0.451858
  2.024000  1.333955  1.453604  0.451858
  2.024000  1.194719  1.570047  0.451858
  2.024000  1.045371  1.673200  0.451858
  2.024000  0.887175  1.762192  0.451858
  2.024000  0.721470  1.836268  0.451858
  2.024000  0.549658  1.894802  0.451858
  2.024000  0.373194  1.937299  0.451858
  2.024000  0.193572  1.963398  0.451858
  2.024000  0.012311  1.972878  0.451858
  2.024000 -0.169055  1.965660  0.451858
  2.024000 -0.348989  1.941805  0.451858
  2.024000 -0.525969  1.901514  0.451858
  2.024000 -0.698498  1.845129  0.451858
  2.024000 -0.865115  1.773126  0.451858
  2.024000 -1.024409  1.686116  0.451858
  2.024000 -1.175032  1.584834  0.451858
  2.024000 -1.315710  1.470138  0.451858
  2.024000 -1.445252  1.342999  0.451858
  2.024000 -1.562561  1.204492  0.451858
  2.024000 -1.666645  1.055791  0.451858
  2.024000 -1.756622  0.898154  0.451858
  2.024000 -1.831731  0.732914  0.451858
  2.024000 -1.891335  0.561471  0.451858
  2.024000 -1.934932  0.385276  0.451858
  2.024000 -1.962152  0.205819  0.451858
  2.024000 -1.972763  0.024621  0.451858
  2.024000 -1.966677 -0.156786  0.451858
  2.024000 -1.943945 -0.336865  0.451858
  2.024000 -1.904759 -0.514094  0.451858
  2.024000 -1.849451 -0.686971  0.451858
  2.024000 -1.778490 -0.854034  0.451858
  2.024000 -1.692475 -1.013868  0.451858
  2.024000 -1.592135 -1.165120  0.451858
  2.024000 -1.478320 -1.306511  0.451858
  2.024000 -1.351991 -1.436844  0.451858
  2.024000 -1.214219 -1.555015  0.451858
  2.024000 -1.066170 -1.660024  0.451858
  2.024000 -0.909097 -1.750983  0.451858
  2.024000 -0.744330 -1.827121  0.451858
  2.024000 -0.573262 -1.887795  0.451858
  2.024000 -0.397342 -1.932490  0.451858
  2.024000 -0.218059 -1.960829  0.451858
  2.024000 -0.036930 -1.972571  0.451858
  2.024000  0.144510 -1.967617  0.451858
  2.024000  0.324729 -1.946009  0.451858
  2.024000  0.502199 -1.907930  0.451858
  2.024000  0.675417 -1.853702  0.451858
  2.024000  0.842920 -1.783784  0.451858
  2.024000  1.003288 -1.698768  0.451858
  2.024000  1.155163 -1.599374  0.451858
  2.024000  1.297261 -1.486443  0.451858
  2.024000  1.428380 -1.360930  0.451858
  2.024000  1.547408 -1.223899  0.451858
  2.024000  1.653340 -1.076508  0.451858
  2.024000  1.745276 -0.920006  0.451858
  2.024000  1.822442 -0.755716  0.451858
  2.024000  1.884181 -0.585030  0.451858
  2.024000  1.929973 -0.409393  0.451858
  2.024000  1.959430 -0.230290  0.451858
  2.024000  1.972302 -0.049239  0.451858
  2.024000  1.997251  0.181325  0.273288
  2.024000  1.972676  0.361165  0.273288
  2.024000  1.931941  0.538046  0.273288
  2.024000  1.875380  0.710519  0.273288
  2.024000  1.803457  0.877172  0.273288
  2.024000  1.716761  1.036640  0.273288
  2.024000  1.616001  1.187615  0.273288
  2.024000  1.502003  1.328862  0.273288
  2.024000  1.375702  1.459224  0.273288
  2.024000  1.238131  1.577632  0.273288
  2.024000  1.090417  1.683116  0.273288
  2.024000  0.933771  1.774813  0.273288
  2.024000  0.769476  1.851971  0.273288
  2.024000  0.598878  1.913958  0.273288
  2.024000  0.423374  1.960266  0.273288
  2.024000  0.244401  1.990517  0.273288
  2.024000  0.063427  2.004462  0.273288
  2.024000 -0.118067  2.001986  0.273288
  2.024000 -0.298594  1.983111  0.273288
  2.024000 -0.476675  1.947991  0.273288
  2.024000 -0.650851  1.896914  0.273288
  2.024000 -0.819695  1.830297  0.273288
  2.024000 -0.981825  1.748688  0.273288
  2.024000 -1.135912  1.652753  0.273288
  2.024000 -1.280694  1.543280  0.273288
  2.024000 -1.414984  1.421164  0.273288
  2.024000 -1.537684  1.287407  0.273288
  2.024000 -1.647787  1.143103  0.273288
  2.024000 -1.744392  0.989436  0.273288
  2.024000 -1.826708  0.827664  0.273288
  2.024000 -1.894060  0.659111  0.273288
  2.024000 -1.945896  0.485159  0.273288
  2.024000 -1.981791  0.307233  0.273288
  2.024000 -2.001453  0.126790  0.273288
  2.024000 -2.004719 -0.054691  0.273288
  2.024000 -1.991563 -0.235725  0.273288
  2.024000 -1.962093 -0.414827  0.273288
  2.024000 -1.916549 -0.590531  0.273288
  2.024000 -1.855307 -0.761398  0.273288
  2.024000 -1.778865 -0.926028  0.273288
  2.024000 -1.687852 -1.083072  0.273288
  2.024000 -1.583012 -1.231243  0.273288
  2.024000 -1.465205 -1.369330  0.273288
  2.024000 -1.335395 -1.496198  0.273288
  2.024000 -1.194646 -1.610810  0.273288
  2.024000 -1.044111 -1.712227  0.273288
  2.024000 -0.885023 -1.799618  0.273288
  2.024000 -0.718685 -1.872266  0.273288
  2.024000 -0.546460 -1.929578  0.273288
  2.024000 -0.369757 -1.971083  0.273288
  2.024000 -0.190027 -1.996442  0.273288
  2.024000 -0.008739 -2.005446  0.273288
  2.024000  0.172619 -1.998022  0.273288
  2.024000  0.352564 -1.974231  0.273288
  2.024000  0.529621 -1.934268  0.273288
  2.024000  0.702340 -1.878459  0.273288
  2.024000  0.869305 -1.807263  0.273288
  2.024000  1.029149 -1.721262  0.273288
  2.024000  1.180562 -1.621161  0.273288
  2.024000  1.322304 -1.507780  0.273288
  2.024000  1.453215 -1.382048  0.273288
  2.024000  1.572221 -1.244994  0.273288
  2.024000  1.678348 -1.097741  0.273288
  2.024000  1.770727 -0.941497  0.273288
  2.024000  1.848600 -0.777540  0.273288
  2.024000  1.911330 -0.607213  0.273288
  2.024000  1.958403 -0.431912  0.273288
  2.024000  1.989433 -0.253073  0.273288
